9.71	9.69	9.68	9.66	9.65	9.63	9.61	9.60	9.58	9.57	9.55	9.54	9.52	9.50	9.48	9.47	9.45	9.44	9.42	9.40	9.38	9.37	9.35	9.34	9.32	9.31	9.29	9.27	9.26	9.24	9.23	9.21	9.19	9.18	9.16	9.14	9.12	9.11	9.09	9.07	9.05	9.04	9.02	9.01	8.99	8.98	8.96	8.95	8.93	8.92	8.91	8.90	8.88	8.86	8.85	8.84	8.82	8.81	8.80	8.78	8.77	8.75	8.74	8.73	8.71	8.70	8.68	8.67	8.66	8.64	8.63	8.62	8.61	8.59	8.57	8.56	8.55	8.54	8.52	8.51	8.49	8.48	8.46	8.45	8.44	8.42	8.41	8.39	8.38	8.37	8.35	8.34	8.32	8.31	8.30	8.28	8.27	8.25	8.25	8.23	8.22	8.20	8.19	8.17	8.16	8.15	8.13	8.12	8.10	8.09	8.08	8.06	8.05	8.03	8.02	8.01	7.99	7.98	7.97	7.96	7.94	7.93	7.92	7.91	7.90	7.89	7.88	7.86	7.85	7.84	7.83	7.82	7.81	7.79	7.78	7.77	7.76	7.74	7.74	7.72	7.71	7.70	7.68	7.68	7.66	7.66	7.64	7.63	7.62	7.60	7.59	7.58	7.57	7.56	7.55	7.53	7.52	7.51	7.50	7.49	7.48	7.47	7.45	7.44	7.43	7.42	7.41	7.39	7.38	7.37	7.36	7.35	7.33	7.33	7.31	7.30	7.29	7.28	7.27	7.25	7.24	7.23	7.22	7.21	7.19	7.18	7.17	7.16	7.15	7.13	7.13	7.11	7.10	7.09	7.08	7.07	7.05	7.04	7.03	7.02	7.01	7.00	6.99	6.98	6.97	6.96	6.95	6.94	6.93	6.92	6.90	6.90	6.88	6.88	6.86	6.86	6.84	6.83	6.82	6.81	6.81	6.79	6.79	6.77	6.76	6.75	6.74	6.73	6.72	6.72	6.70	6.69	6.68	6.67	6.66	6.65	6.64	6.63	6.62	6.61	6.60	6.59	6.58	6.57	6.56	6.55	6.54	6.53	6.52	6.51	6.50	6.49	6.48	6.47	6.46	6.45	6.44	6.43	6.42	6.41	6.40	6.39	6.38	6.37	6.36	6.35	6.34	6.33	6.32	6.31	6.30	6.29	6.28	6.27	6.26	6.25	6.24	6.23	6.21	6.21	6.20	6.19	6.17	6.17	6.16	6.14	6.14	6.13	6.14	6.13	6.12	6.10	6.09	6.08	6.07	6.06	6.05	6.04	6.02	6.01	6.00	5.99	5.98	5.95	5.93	5.91	5.88	5.87	5.84	5.82	5.80	5.78	5.75	5.73	5.71	5.69	5.66	5.64	5.62	5.60	5.57	5.55	5.53	5.51	5.49	5.45	5.44	5.41	5.40	5.37	5.35	5.33	5.30	5.28	5.25	5.24	5.21	5.20	5.17	5.14	5.13	5.10	5.08	5.05	5.04	5.01	4.70	4.43	4.04	3.74	3.29	2.96	2.53	2.10	1.84	1.34	1.09	0.57	0.19	-0.22	-0.44	-0.41	-0.17	0.02	0.14	0.22	0.34	0.46	0.57	0.69	0.77	0.88	0.99	1.13	1.27	1.36	1.54	1.63	1.77	1.86	2.01	2.05	2.08	2.12	2.14	2.19	2.22	2.26	2.30	2.34	2.37	2.40	2.44	2.49	2.52	2.56	2.58	2.63	2.66	2.70	2.71	2.70	2.70	2.69	2.70	2.69	2.68	2.69	2.69	2.69	2.67	2.68	2.68	2.68	2.69	2.70	2.73	2.71	2.65	2.59	2.53	2.47	2.42	2.34	2.30	2.23	2.19	2.10	2.04	1.99	1.81	1.69	1.47	1.35	1.19	1.02	0.93	0.85	0.79	0.71	0.63	0.55	0.47	0.42	0.31	-0.30	-0.40	-0.41	-0.47	-0.81	-1.22	-1.41	-1.67	-1.95	-2.18	-2.55	-2.69	-2.77	-2.84	-2.90	-2.71	-2.65	-2.69	-2.75	-2.76	-2.75	-2.74	-2.74	-2.73	-2.72	-2.71	-2.71	-2.68	-2.65	-2.67	-2.74	-2.81	-2.74	-2.64	-2.51	-2.51	-2.56	-2.63	-2.64	-2.58	-2.58	-2.55	-2.51	-2.47	-2.46	-2.46	-2.41	-2.31	-2.33	-2.39	-2.54	-2.59	-2.62	-2.61	-2.63	-2.66	-2.71	-2.76	-2.71	-2.77	-2.81	-2.77	-2.74	-2.80	-2.79	-2.77	-2.75	-2.73	-2.74	-2.73	-2.78	-2.79	-2.77	-2.74	-2.72	-2.65	-2.58	-2.58	-2.36	-2.30	-2.25	-2.23	-2.23	-2.19	-2.20	-2.18	-2.15	-2.15	-2.15	-2.15	-2.03	-1.92	-1.92	-1.90	-1.90	-1.90	-1.84	-1.84	-1.87	-1.86	-1.94	-1.99	-2.47	-2.52	-2.51	-2.53	-2.53	-2.51	-2.45	-2.37	-2.37	-2.42	-2.49	-2.50
9.71	9.70	9.68	9.66	9.65	9.63	9.62	9.60	9.59	9.57	9.55	9.53	9.52	9.50	9.49	9.48	9.45	9.43	9.42	9.41	9.39	9.37	9.35	9.34	9.32	9.31	9.29	9.28	9.26	9.24	9.23	9.21	9.20	9.17	9.16	9.14	9.13	9.11	9.09	9.07	9.06	9.04	9.02	9.00	8.99	8.97	8.96	8.95	8.94	8.92	8.90	8.89	8.88	8.87	8.85	8.84	8.83	8.81	8.80	8.78	8.77	8.76	8.74	8.73	8.71	8.70	8.69	8.67	8.66	8.65	8.63	8.61	8.60	8.59	8.58	8.56	8.55	8.53	8.52	8.51	8.49	8.48	8.46	8.46	8.44	8.42	8.41	8.40	8.38	8.37	8.35	8.34	8.32	8.31	8.30	8.29	8.27	8.25	8.24	8.23	8.22	8.20	8.19	8.17	8.16	8.14	8.13	8.12	8.10	8.09	8.08	8.06	8.05	8.03	8.02	8.01	8.00	7.98	7.97	7.96	7.95	7.94	7.92	7.91	7.90	7.89	7.88	7.86	7.85	7.84	7.83	7.82	7.80	7.80	7.78	7.77	7.76	7.75	7.74	7.72	7.71	7.70	7.69	7.68	7.67	7.65	7.64	7.63	7.62	7.61	7.60	7.59	7.57	7.56	7.55	7.54	7.52	7.51	7.50	7.49	7.48	7.47	7.45	7.45	7.43	7.42	7.41	7.39	7.39	7.37	7.36	7.35	7.34	7.32	7.31	7.30	7.29	7.28	7.27	7.25	7.24	7.23	7.22	7.21	7.20	7.19	7.17	7.16	7.15	7.14	7.12	7.12	7.10	7.09	7.08	7.06	7.06	7.04	7.04	7.02	7.01	7.00	6.99	6.98	6.97	6.96	6.95	6.93	6.93	6.92	6.91	6.90	6.89	6.88	6.86	6.86	6.84	6.84	6.83	6.82	6.80	6.79	6.79	6.77	6.76	6.75	6.75	6.73	6.72	6.71	6.70	6.70	6.68	6.67	6.66	6.65	6.64	6.63	6.62	6.61	6.60	6.59	6.58	6.57	6.56	6.55	6.54	6.53	6.52	6.51	6.50	6.49	6.48	6.47	6.46	6.45	6.44	6.43	6.42	6.41	6.40	6.39	6.38	6.37	6.36	6.35	6.34	6.33	6.32	6.31	6.30	6.29	6.28	6.27	6.26	6.25	6.24	6.23	6.22	6.21	6.20	6.19	6.18	6.17	6.15	6.15	6.14	6.15	6.14	6.13	6.12	6.11	6.10	6.08	6.07	6.06	6.05	6.03	6.02	6.01	6.00	5.99	5.98	5.95	5.94	5.91	5.89	5.87	5.84	5.83	5.79	5.78	5.75	5.74	5.71	5.68	5.67	5.64	5.62	5.59	5.58	5.55	5.53	5.51	5.48	5.47	5.44	5.42	5.39	5.37	5.35	5.32	5.31	5.28	5.27	5.23	5.21	5.19	5.17	5.15	5.12	5.11	5.08	5.06	5.03	5.01	4.90	4.47	4.11	3.76	3.33	3.07	2.57	2.32	1.88	1.63	1.20	0.45	0.07	-0.20	-0.35	-0.37	-0.21	0.01	0.13	0.24	0.36	0.44	0.56	0.72	0.79	0.91	0.98	1.12	1.25	1.39	1.53	1.62	1.80	1.88	2.01	2.04	2.09	2.13	2.15	2.19	2.23	2.27	2.29	2.33	2.37	2.41	2.45	2.47	2.51	2.55	2.59	2.63	2.66	2.66	2.66	2.66	2.66	2.66	2.66	2.65	2.66	2.65	2.65	2.64	2.65	2.65	2.63	2.64	2.64	2.66	2.66	2.69	2.63	2.59	2.53	2.46	2.40	2.36	2.29	2.21	2.17	2.10	2.06	1.93	1.80	1.62	1.45	1.28	1.11	1.00	0.92	0.84	0.76	0.68	0.63	0.55	0.46	0.39	0.31	0.25	-0.31	-0.52	-0.65	-0.88	-1.33	-1.50	-1.73	-1.95	-2.22	-2.60	-2.71	-2.79	-2.84	-2.76	-2.63	-2.65	-2.72	-2.72	-2.75	-2.74	-2.74	-2.73	-2.74	-2.71	-2.72	-2.71	-2.70	-2.70	-2.62	-2.84	-2.81	-2.81	-2.68	-2.57	-2.55	-2.56	-2.56	-2.62	-2.62	-2.58	-2.57	-2.57	-2.51	-2.52	-2.45	-2.44	-2.35	-2.29	-2.41	-2.54	-2.54	-2.63	-2.64	-2.62	-2.66	-2.70	-2.77	-2.78	-2.81	-2.81	-2.82	-2.82	-2.80	-2.81	-2.79	-2.75	-2.75	-2.74	-2.74	-2.74	-2.76	-2.74	-2.74	-2.70	-2.64	-2.59	-2.46	-2.34	-2.34	-2.30	-2.30	-2.23	-2.21	-2.21	-2.22	-2.22	-2.21	-2.22	-2.22	-2.10	-1.94	-1.93	-1.91	-1.90	-1.86	-1.83	-1.84	-1.84	-1.85	-1.88	-2.08	-2.47	-2.51	-2.55	-2.54	-2.55	-2.55	-2.40	-2.37	-2.37	-2.45	-2.50	-2.53
9.71	9.70	9.68	9.67	9.65	9.63	9.62	9.60	9.59	9.57	9.55	9.54	9.52	9.50	9.48	9.47	9.45	9.44	9.42	9.40	9.39	9.37	9.36	9.34	9.33	9.31	9.29	9.28	9.26	9.25	9.22	9.21	9.19	9.18	9.16	9.14	9.13	9.11	9.10	9.07	9.05	9.04	9.02	9.01	8.99	8.98	8.97	8.95	8.94	8.92	8.91	8.90	8.88	8.87	8.85	8.84	8.82	8.81	8.80	8.79	8.77	8.75	8.74	8.73	8.71	8.70	8.68	8.67	8.66	8.65	8.63	8.62	8.61	8.59	8.58	8.56	8.55	8.53	8.52	8.51	8.49	8.48	8.46	8.45	8.44	8.43	8.41	8.39	8.38	8.37	8.35	8.34	8.33	8.31	8.29	8.28	8.27	8.26	8.24	8.23	8.22	8.20	8.19	8.17	8.16	8.15	8.14	8.12	8.10	8.09	8.08	8.06	8.05	8.04	8.02	8.00	8.00	7.98	7.97	7.96	7.95	7.94	7.92	7.92	7.90	7.89	7.88	7.87	7.85	7.84	7.83	7.82	7.81	7.79	7.78	7.77	7.76	7.75	7.74	7.73	7.71	7.70	7.69	7.68	7.67	7.65	7.64	7.63	7.62	7.61	7.59	7.59	7.57	7.56	7.55	7.54	7.53	7.51	7.50	7.49	7.48	7.47	7.45	7.44	7.43	7.42	7.41	7.40	7.39	7.37	7.36	7.35	7.34	7.33	7.32	7.30	7.29	7.28	7.27	7.26	7.24	7.23	7.22	7.21	7.20	7.18	7.18	7.16	7.15	7.14	7.13	7.12	7.10	7.09	7.08	7.07	7.06	7.04	7.03	7.02	7.01	7.00	6.99	6.98	6.97	6.96	6.95	6.94	6.93	6.91	6.91	6.90	6.89	6.88	6.87	6.86	6.84	6.84	6.82	6.82	6.81	6.80	6.78	6.77	6.77	6.75	6.74	6.73	6.73	6.72	6.70	6.69	6.68	6.68	6.66	6.65	6.64	6.63	6.62	6.61	6.60	6.59	6.59	6.57	6.56	6.55	6.54	6.53	6.52	6.51	6.50	6.49	6.48	6.47	6.46	6.45	6.44	6.43	6.42	6.41	6.40	6.39	6.38	6.37	6.36	6.35	6.34	6.33	6.32	6.31	6.30	6.29	6.28	6.27	6.26	6.25	6.24	6.22	6.22	6.21	6.20	6.19	6.18	6.17	6.16	6.15	6.16	6.15	6.14	6.13	6.12	6.10	6.09	6.08	6.08	6.06	6.05	6.04	6.02	6.01	6.00	6.00	5.98	5.96	5.93	5.91	5.89	5.86	5.85	5.82	5.81	5.78	5.75	5.73	5.71	5.69	5.66	5.65	5.62	5.60	5.57	5.55	5.53	5.51	5.49	5.46	5.44	5.42	5.40	5.37	5.35	5.33	5.31	5.28	5.26	5.24	5.22	5.19	5.17	5.15	5.12	5.10	5.08	5.06	5.04	5.01	4.83	4.41	4.17	3.87	3.55	3.12	2.68	2.43	1.92	1.66	1.08	0.70	-0.02	-0.25	-0.39	-0.39	-0.24	0.03	0.11	0.23	0.35	0.46	0.58	0.66	0.78	0.89	1.01	1.15	1.24	1.38	1.50	1.64	1.73	1.86	2.02	2.04	2.08	2.11	2.16	2.19	2.23	2.27	2.30	2.34	2.37	2.41	2.43	2.48	2.52	2.55	2.59	2.62	2.63	2.62	2.63	2.62	2.62	2.62	2.62	2.61	2.61	2.61	2.62	2.61	2.61	2.60	2.61	2.62	2.60	2.61	2.62	2.65	2.62	2.56	2.50	2.46	2.38	2.33	2.27	2.23	2.16	2.08	2.04	1.92	1.79	1.55	1.43	1.27	1.10	0.97	0.89	0.83	0.75	0.67	0.59	0.51	0.46	0.38	0.30	-0.33	-0.37	-0.41	-0.73	-1.14	-1.33	-1.37	-1.78	-2.00	-2.44	-2.60	-2.70	-2.80	-2.84	-2.72	-2.72	-2.65	-2.67	-2.72	-2.73	-2.74	-2.73	-2.75	-2.74	-2.72	-2.76	-2.74	-2.75	-2.70	-2.72	-2.79	-2.85	-2.83	-2.58	-2.58	-2.52	-2.55	-2.62	-2.61	-2.61	-2.60	-2.60	-2.57	-2.54	-2.54	-2.50	-2.37	-2.29	-2.29	-2.30	-2.49	-2.59	-2.63	-2.57	-2.60	-2.64	-2.73	-2.77	-2.78	-2.79	-2.81	-2.86	-2.86	-2.88	-2.85	-2.79	-2.75	-2.76	-2.77	-2.75	-2.74	-2.75	-2.75	-2.73	-2.69	-2.61	-2.61	-2.47	-2.36	-2.30	-2.31	-2.31	-2.27	-2.24	-2.21	-2.19	-2.19	-2.14	-2.08	-2.13	-2.11	-2.08	-1.91	-1.89	-1.85	-1.83	-1.77	-1.82	-1.83	-1.85	-1.83	-1.84	-2.11	-2.56	-2.56	-2.53	-2.47	-2.42	-2.39	-2.39	-2.38	-2.48	-2.50	-2.55
9.72	9.70	9.68	9.67	9.65	9.64	9.62	9.60	9.59	9.57	9.56	9.53	9.52	9.50	9.49	9.47	9.45	9.44	9.42	9.41	9.39	9.38	9.36	9.34	9.33	9.31	9.30	9.28	9.26	9.24	9.23	9.21	9.19	9.18	9.16	9.15	9.13	9.11	9.10	9.08	9.06	9.04	9.02	9.01	8.99	8.98	8.96	8.95	8.94	8.92	8.91	8.89	8.88	8.87	8.86	8.84	8.82	8.82	8.80	8.79	8.77	8.76	8.74	8.73	8.72	8.70	8.69	8.67	8.66	8.65	8.63	8.62	8.60	8.59	8.58	8.56	8.55	8.53	8.52	8.50	8.49	8.48	8.47	8.45	8.44	8.43	8.41	8.40	8.38	8.37	8.36	8.34	8.33	8.31	8.30	8.29	8.27	8.26	8.24	8.23	8.21	8.20	8.19	8.18	8.16	8.14	8.13	8.12	8.11	8.09	8.08	8.07	8.05	8.04	8.02	8.01	8.00	7.98	7.97	7.96	7.95	7.94	7.93	7.91	7.90	7.89	7.88	7.87	7.86	7.85	7.83	7.82	7.81	7.80	7.79	7.77	7.76	7.75	7.74	7.73	7.71	7.71	7.69	7.68	7.67	7.65	7.65	7.63	7.62	7.61	7.60	7.58	7.57	7.56	7.55	7.54	7.53	7.52	7.50	7.49	7.48	7.47	7.46	7.45	7.43	7.42	7.41	7.40	7.38	7.38	7.36	7.35	7.34	7.33	7.32	7.30	7.30	7.28	7.27	7.26	7.25	7.23	7.22	7.21	7.20	7.18	7.17	7.16	7.15	7.14	7.13	7.12	7.10	7.09	7.08	7.07	7.06	7.05	7.03	7.02	7.01	7.00	6.99	6.98	6.97	6.96	6.95	6.94	6.93	6.92	6.91	6.90	6.89	6.88	6.87	6.85	6.85	6.84	6.83	6.82	6.80	6.80	6.79	6.78	6.76	6.76	6.75	6.73	6.72	6.71	6.71	6.70	6.69	6.67	6.66	6.66	6.64	6.63	6.62	6.62	6.61	6.59	6.58	6.57	6.57	6.55	6.54	6.53	6.52	6.51	6.50	6.49	6.48	6.47	6.46	6.45	6.44	6.43	6.42	6.41	6.40	6.39	6.38	6.37	6.36	6.35	6.34	6.33	6.32	6.31	6.30	6.29	6.28	6.27	6.26	6.25	6.24	6.23	6.22	6.21	6.20	6.19	6.18	6.17	6.16	6.16	6.17	6.15	6.14	6.13	6.12	6.11	6.10	6.09	6.07	6.06	6.05	6.03	6.02	6.01	6.00	6.00	5.98	5.96	5.94	5.91	5.89	5.87	5.85	5.82	5.80	5.78	5.76	5.73	5.71	5.69	5.67	5.65	5.62	5.60	5.58	5.55	5.53	5.51	5.49	5.46	5.44	5.42	5.39	5.38	5.35	5.33	5.31	5.29	5.26	5.23	5.22	5.19	5.18	5.15	5.13	5.11	5.08	5.06	5.03	5.02	4.87	4.50	4.20	3.91	3.66	3.23	2.90	2.47	2.22	1.70	0.95	0.58	0.00	-0.15	-0.42	-0.45	-0.20	-0.01	0.07	0.21	0.28	0.42	0.49	0.63	0.77	0.85	1.00	1.12	1.26	1.35	1.48	1.66	1.74	1.90	2.00	2.04	2.08	2.12	2.16	2.18	2.24	2.26	2.30	2.34	2.38	2.42	2.44	2.48	2.52	2.56	2.60	2.60	2.60	2.58	2.59	2.58	2.59	2.58	2.58	2.58	2.58	2.57	2.57	2.57	2.58	2.56	2.57	2.56	2.57	2.56	2.57	2.60	2.61	2.56	2.50	2.44	2.40	2.33	2.25	2.20	2.14	2.10	2.01	1.91	1.73	1.54	1.42	1.20	1.08	0.96	0.91	0.80	0.72	0.67	0.59	0.50	0.43	0.37	0.29	-0.36	-0.45	-0.60	-0.79	-0.93	-1.19	-1.58	-1.78	-1.96	-2.35	-2.60	-2.73	-2.80	-2.89	-2.76	-2.72	-2.67	-2.67	-2.73	-2.76	-2.74	-2.73	-2.74	-2.75	-2.76	-2.76	-2.77	-2.77	-2.77	-2.73	-2.82	-2.82	-2.83	-2.78	-2.54	-2.64	-2.64	-2.73	-2.66	-2.59	-2.60	-2.60	-2.60	-2.51	-2.49	-2.56	-2.45	-2.35	-2.31	-2.38	-2.49	-2.55	-2.55	-2.58	-2.60	-2.64	-2.69	-2.74	-2.79	-2.79	-2.84	-2.93	-2.89	-2.90	-2.90	-2.85	-2.77	-2.76	-2.76	-2.75	-2.74	-2.75	-2.75	-2.73	-2.71	-2.63	-2.57	-2.44	-2.44	-2.31	-2.30	-2.24	-2.27	-2.27	-2.17	-2.18	-2.14	-2.09	-2.09	-2.07	-2.02	-1.95	-1.90	-1.85	-1.85	-1.82	-1.78	-1.81	-1.82	-1.83	-1.83	-1.84	-2.14	-2.47	-2.51	-2.41	-2.41	-2.46	-2.40	-2.39	-2.45	-2.49	-2.52	-2.54
9.72	9.70	9.69	9.67	9.65	9.64	9.62	9.61	9.58	9.57	9.55	9.54	9.52	9.50	9.49	9.47	9.46	9.44	9.42	9.41	9.39	9.37	9.36	9.35	9.33	9.30	9.29	9.27	9.26	9.25	9.23	9.21	9.19	9.18	9.16	9.15	9.13	9.12	9.10	9.08	9.07	9.04	9.02	9.01	9.00	8.98	8.97	8.95	8.94	8.93	8.91	8.90	8.88	8.87	8.86	8.84	8.83	8.81	8.80	8.78	8.77	8.76	8.74	8.73	8.71	8.70	8.69	8.67	8.66	8.64	8.64	8.62	8.61	8.59	8.58	8.57	8.55	8.54	8.52	8.51	8.50	8.48	8.47	8.45	8.44	8.42	8.41	8.40	8.38	8.37	8.35	8.34	8.33	8.31	8.30	8.28	8.27	8.26	8.25	8.23	8.22	8.21	8.19	8.18	8.16	8.15	8.13	8.12	8.11	8.09	8.08	8.06	8.06	8.04	8.02	8.01	8.00	7.99	7.98	7.96	7.95	7.94	7.93	7.91	7.91	7.89	7.88	7.87	7.85	7.85	7.83	7.83	7.81	7.80	7.79	7.77	7.76	7.75	7.74	7.73	7.72	7.70	7.69	7.68	7.67	7.66	7.65	7.64	7.62	7.61	7.60	7.59	7.58	7.56	7.55	7.54	7.53	7.52	7.50	7.50	7.48	7.47	7.46	7.44	7.44	7.42	7.41	7.40	7.39	7.38	7.36	7.35	7.34	7.33	7.32	7.30	7.29	7.28	7.27	7.26	7.25	7.23	7.22	7.21	7.20	7.19	7.18	7.16	7.15	7.14	7.13	7.12	7.10	7.09	7.08	7.07	7.05	7.04	7.03	7.02	7.01	7.00	6.99	6.98	6.97	6.96	6.95	6.94	6.93	6.92	6.91	6.90	6.89	6.88	6.87	6.86	6.85	6.83	6.83	6.82	6.81	6.80	6.78	6.78	6.77	6.76	6.74	6.74	6.73	6.71	6.70	6.69	6.69	6.68	6.67	6.65	6.64	6.64	6.62	6.61	6.60	6.60	6.59	6.57	6.56	6.55	6.55	6.53	6.52	6.51	6.50	6.49	6.48	6.47	6.46	6.46	6.44	6.43	6.42	6.41	6.40	6.39	6.38	6.37	6.36	6.35	6.34	6.33	6.32	6.31	6.30	6.29	6.28	6.27	6.26	6.25	6.24	6.23	6.22	6.21	6.20	6.19	6.18	6.17	6.17	6.17	6.17	6.15	6.15	6.13	6.12	6.11	6.10	6.09	6.07	6.06	6.05	6.03	6.02	6.01	6.00	6.00	5.98	5.95	5.93	5.91	5.89	5.87	5.84	5.83	5.80	5.77	5.76	5.73	5.72	5.69	5.67	5.65	5.62	5.60	5.57	5.56	5.53	5.52	5.49	5.46	5.45	5.42	5.40	5.37	5.36	5.33	5.30	5.29	5.26	5.25	5.22	5.20	5.17	5.15	5.13	5.10	5.09	5.06	5.04	5.01	4.81	4.54	4.26	4.08	3.70	3.45	3.02	2.58	2.17	1.58	1.21	0.62	0.08	-0.20	-0.40	-0.47	-0.19	-0.12	0.02	0.16	0.24	0.37	0.45	0.60	0.69	0.87	1.02	1.10	1.24	1.36	1.50	1.59	1.72	1.94	2.01	2.05	2.08	2.13	2.15	2.19	2.23	2.26	2.31	2.34	2.37	2.40	2.45	2.49	2.52	2.56	2.55	2.55	2.55	2.56	2.55	2.54	2.55	2.55	2.55	2.53	2.54	2.55	2.54	2.53	2.53	2.53	2.53	2.52	2.53	2.52	2.53	2.54	2.55	2.55	2.49	2.43	2.37	2.31	2.27	2.20	2.14	2.08	2.01	1.91	1.66	1.53	1.35	1.19	1.07	0.93	0.87	0.79	0.74	0.63	0.55	0.50	0.42	0.34	0.26	-0.35	-0.41	-0.63	-0.83	-0.98	-1.23	-1.40	-1.78	-2.11	-2.35	-2.38	-2.74	-2.81	-2.79	-2.79	-2.72	-2.78	-2.77	-2.77	-2.77	-2.77	-2.76	-2.74	-2.75	-2.76	-2.77	-2.76	-2.77	-2.76	-2.76	-2.73	-2.75	-2.64	-2.64	-2.59	-2.63	-2.75	-2.71	-2.71	-2.65	-2.59	-2.61	-2.58	-2.57	-2.60	-2.56	-2.43	-2.37	-2.31	-2.43	-2.55	-2.52	-2.53	-2.61	-2.63	-2.67	-2.67	-2.73	-2.81	-2.82	-2.88	-2.88	-2.97	-2.95	-2.90	-2.80	-2.77	-2.77	-2.74	-2.75	-2.74	-2.76	-2.73	-2.70	-2.71	-2.64	-2.56	-2.54	-2.34	-2.28	-2.28	-2.28	-2.23	-2.19	-2.13	-2.13	-2.12	-2.10	-2.09	-2.09	-2.08	-1.98	-1.86	-1.85	-1.84	-1.84	-1.81	-1.80	-1.81	-1.81	-1.83	-1.89	-2.39	-2.39	-2.38	-2.37	-2.39	-2.43	-2.43	-2.41	-2.46	-2.49	-2.52	-2.51
9.72	9.70	9.68	9.67	9.66	9.64	9.62	9.60	9.59	9.57	9.55	9.54	9.52	9.51	9.49	9.47	9.46	9.44	9.43	9.41	9.39	9.38	9.36	9.34	9.32	9.31	9.29	9.28	9.26	9.24	9.23	9.21	9.20	9.18	9.17	9.15	9.13	9.12	9.10	9.09	9.06	9.05	9.03	9.01	8.99	8.98	8.97	8.95	8.94	8.92	8.91	8.90	8.88	8.87	8.85	8.85	8.83	8.81	8.80	8.79	8.78	8.76	8.74	8.73	8.72	8.71	8.69	8.68	8.66	8.65	8.63	8.62	8.61	8.59	8.58	8.56	8.55	8.54	8.52	8.51	8.49	8.48	8.47	8.45	8.44	8.42	8.42	8.40	8.39	8.37	8.36	8.34	8.33	8.32	8.30	8.29	8.27	8.26	8.25	8.23	8.22	8.20	8.20	8.18	8.16	8.15	8.14	8.13	8.11	8.10	8.08	8.07	8.05	8.04	8.03	8.01	8.00	7.99	7.97	7.97	7.95	7.94	7.93	7.92	7.91	7.89	7.88	7.87	7.86	7.85	7.83	7.82	7.81	7.80	7.79	7.78	7.77	7.75	7.74	7.73	7.72	7.71	7.70	7.68	7.67	7.66	7.64	7.64	7.62	7.62	7.60	7.59	7.58	7.56	7.56	7.54	7.53	7.52	7.51	7.49	7.48	7.47	7.46	7.45	7.43	7.42	7.41	7.40	7.39	7.38	7.37	7.35	7.34	7.33	7.32	7.31	7.29	7.28	7.27	7.26	7.25	7.23	7.22	7.21	7.20	7.19	7.17	7.16	7.15	7.14	7.13	7.12	7.10	7.09	7.08	7.07	7.06	7.04	7.03	7.02	7.01	7.00	6.99	6.98	6.97	6.96	6.95	6.94	6.93	6.92	6.91	6.90	6.89	6.88	6.87	6.86	6.85	6.84	6.83	6.81	6.81	6.80	6.79	6.78	6.77	6.76	6.75	6.74	6.72	6.72	6.71	6.70	6.69	6.67	6.67	6.66	6.65	6.63	6.63	6.62	6.60	6.59	6.58	6.58	6.57	6.56	6.54	6.53	6.53	6.51	6.50	6.49	6.49	6.47	6.46	6.45	6.44	6.43	6.42	6.41	6.40	6.39	6.38	6.37	6.36	6.35	6.34	6.33	6.32	6.31	6.30	6.29	6.28	6.27	6.26	6.25	6.24	6.23	6.22	6.21	6.20	6.19	6.18	6.18	6.19	6.18	6.17	6.15	6.14	6.13	6.11	6.11	6.10	6.09	6.07	6.06	6.05	6.04	6.02	6.02	6.00	5.99	5.98	5.95	5.93	5.91	5.89	5.87	5.84	5.82	5.80	5.78	5.76	5.73	5.71	5.69	5.67	5.64	5.62	5.60	5.58	5.55	5.53	5.51	5.49	5.47	5.44	5.43	5.40	5.38	5.35	5.33	5.31	5.29	5.27	5.24	5.22	5.20	5.17	5.15	5.13	5.10	5.09	5.06	5.04	5.02	5.00	4.53	4.28	4.14	3.81	3.49	3.06	2.80	2.21	1.46	1.08	0.50	0.12	-0.18	-0.36	-0.43	-0.24	-0.17	-0.03	0.05	0.20	0.29	0.47	0.62	0.71	0.85	0.98	1.12	1.20	1.34	1.48	1.60	1.76	1.87	2.01	2.05	2.09	2.13	2.15	2.20	2.23	2.27	2.29	2.34	2.38	2.41	2.45	2.47	2.52	2.51	2.52	2.53	2.51	2.51	2.51	2.52	2.50	2.50	2.51	2.51	2.51	2.49	2.50	2.51	2.50	2.49	2.49	2.50	2.49	2.48	2.49	2.48	2.52	2.51	2.47	2.42	2.37	2.31	2.24	2.18	2.14	2.07	2.01	1.84	1.65	1.53	1.28	1.17	1.00	0.95	0.84	0.76	0.71	0.63	0.57	0.46	0.41	0.33	0.25	-0.37	-0.47	-0.50	-0.67	-1.03	-1.42	-1.58	-1.76	-1.97	-2.14	-2.52	-2.52	-2.79	-2.79	-2.76	-2.77	-2.77	-2.80	-2.77	-2.77	-2.77	-2.76	-2.77	-2.76	-2.76	-2.76	-2.75	-2.76	-2.76	-2.76	-2.72	-2.69	-2.66	-2.61	-2.65	-2.65	-2.69	-2.72	-2.69	-2.62	-2.62	-2.56	-2.58	-2.58	-2.60	-2.61	-2.51	-2.36	-2.35	-2.46	-2.53	-2.55	-2.56	-2.61	-2.63	-2.72	-2.72	-2.75	-2.75	-2.85	-2.89	-2.92	-2.98	-2.98	-2.91	-2.79	-2.77	-2.73	-2.73	-2.74	-2.78	-2.76	-2.76	-2.70	-2.67	-2.63	-2.56	-2.49	-2.32	-2.26	-2.23	-2.23	-2.23	-2.15	-2.14	-2.09	-2.08	-2.11	-2.09	-2.08	-2.05	-1.99	-1.94	-1.86	-1.82	-1.81	-1.81	-1.81	-1.80	-1.81	-1.81	-1.89	-2.34	-2.44	-2.37	-2.37	-2.33	-2.37	-2.42	-2.44	-2.44	-2.46	-2.49	-2.51
9.72	9.71	9.69	9.67	9.65	9.64	9.62	9.61	9.59	9.57	9.56	9.54	9.52	9.51	9.49	9.48	9.46	9.44	9.43	9.41	9.39	9.37	9.36	9.34	9.33	9.31	9.29	9.28	9.26	9.25	9.23	9.22	9.20	9.18	9.16	9.15	9.14	9.11	9.09	9.08	9.06	9.05	9.02	9.01	9.00	8.98	8.97	8.95	8.94	8.93	8.91	8.90	8.88	8.87	8.86	8.84	8.83	8.82	8.80	8.78	8.77	8.76	8.75	8.73	8.72	8.70	8.69	8.67	8.66	8.65	8.63	8.62	8.61	8.59	8.58	8.57	8.55	8.54	8.53	8.51	8.49	8.48	8.47	8.46	8.44	8.43	8.41	8.40	8.39	8.37	8.36	8.34	8.34	8.32	8.30	8.29	8.28	8.26	8.25	8.24	8.22	8.20	8.19	8.18	8.17	8.15	8.13	8.13	8.11	8.10	8.08	8.07	8.06	8.04	8.03	8.01	8.00	7.99	7.98	7.97	7.95	7.94	7.93	7.92	7.91	7.90	7.88	7.87	7.86	7.85	7.84	7.82	7.81	7.80	7.79	7.78	7.76	7.76	7.74	7.73	7.72	7.71	7.70	7.68	7.67	7.66	7.65	7.64	7.62	7.61	7.60	7.59	7.58	7.57	7.55	7.54	7.53	7.52	7.51	7.50	7.49	7.47	7.46	7.45	7.44	7.42	7.41	7.40	7.39	7.38	7.36	7.35	7.34	7.33	7.31	7.30	7.29	7.28	7.27	7.26	7.25	7.23	7.22	7.21	7.20	7.19	7.18	7.16	7.15	7.14	7.13	7.11	7.10	7.09	7.08	7.06	7.05	7.04	7.03	7.02	7.01	7.00	6.99	6.98	6.97	6.96	6.95	6.94	6.93	6.92	6.91	6.90	6.89	6.88	6.87	6.86	6.85	6.84	6.83	6.82	6.81	6.80	6.79	6.78	6.77	6.76	6.75	6.74	6.73	6.72	6.70	6.70	6.69	6.68	6.67	6.66	6.65	6.64	6.63	6.61	6.61	6.60	6.58	6.58	6.56	6.56	6.54	6.54	6.52	6.51	6.51	6.49	6.48	6.47	6.47	6.45	6.44	6.43	6.42	6.41	6.40	6.39	6.38	6.37	6.36	6.35	6.34	6.33	6.32	6.31	6.30	6.29	6.28	6.27	6.26	6.25	6.24	6.23	6.22	6.21	6.20	6.19	6.19	6.19	6.19	6.18	6.17	6.16	6.15	6.13	6.12	6.11	6.10	6.08	6.07	6.06	6.05	6.04	6.02	6.01	6.00	6.00	5.97	5.95	5.93	5.91	5.88	5.86	5.84	5.82	5.80	5.77	5.75	5.73	5.71	5.69	5.66	5.64	5.62	5.59	5.58	5.55	5.54	5.51	5.48	5.47	5.44	5.42	5.40	5.38	5.36	5.33	5.31	5.28	5.27	5.24	5.22	5.20	5.17	5.16	5.12	5.11	5.08	5.07	5.04	5.01	4.94	4.59	4.45	4.16	4.02	3.60	3.17	2.67	2.09	1.71	1.13	0.58	0.00	-0.22	-0.34	-0.42	-0.35	-0.20	-0.11	0.03	0.22	0.31	0.45	0.54	0.72	0.81	0.96	1.10	1.22	1.36	1.45	1.58	1.69	1.91	2.02	2.04	2.08	2.12	2.16	2.20	2.23	2.28	2.30	2.34	2.37	2.42	2.46	2.48	2.49	2.49	2.48	2.48	2.48	2.49	2.47	2.48	2.47	2.48	2.46	2.46	2.47	2.47	2.46	2.45	2.46	2.46	2.46	2.45	2.45	2.46	2.45	2.44	2.44	2.47	2.46	2.40	2.34	2.30	2.24	2.18	2.11	2.05	2.01	1.84	1.64	1.46	1.33	1.16	0.97	0.91	0.83	0.78	0.67	0.62	0.54	0.46	0.38	0.30	0.24	-0.34	-0.39	-0.68	-0.86	-1.08	-1.26	-1.60	-1.79	-1.97	-2.14	-2.50	-2.67	-2.80	-2.80	-2.78	-2.81	-2.86	-2.77	-2.77	-2.76	-2.76	-2.76	-2.75	-2.74	-2.75	-2.75	-2.75	-2.75	-2.79	-2.76	-2.68	-2.69	-2.69	-2.65	-2.63	-2.65	-2.67	-2.67	-2.63	-2.58	-2.56	-2.47	-2.55	-2.60	-2.64	-2.58	-2.50	-2.40	-2.38	-2.47	-2.55	-2.59	-2.56	-2.63	-2.67	-2.67	-2.73	-2.81	-2.84	-2.86	-2.86	-2.89	-2.96	-2.96	-2.83	-2.83	-2.77	-2.74	-2.73	-2.75	-2.74	-2.75	-2.72	-2.70	-2.71	-2.63	-2.56	-2.43	-2.25	-2.25	-2.17	-2.18	-2.16	-2.10	-2.10	-2.08	-2.08	-2.09	-2.04	-2.08	-2.02	-2.00	-1.95	-1.99	-1.85	-1.77	-1.78	-1.82	-1.82	-1.80	-1.83	-2.09	-2.09	-2.40	-2.36	-2.33	-2.34	-2.34	-2.37	-2.43	-2.44	-2.47	-2.47	-2.48
9.73	9.70	9.68	9.67	9.66	9.64	9.62	9.60	9.59	9.57	9.56	9.54	9.53	9.51	9.49	9.48	9.46	9.45	9.42	9.41	9.39	9.38	9.36	9.34	9.33	9.31	9.30	9.28	9.26	9.25	9.23	9.21	9.20	9.18	9.17	9.14	9.13	9.11	9.10	9.08	9.07	9.05	9.03	9.01	8.99	8.98	8.97	8.96	8.94	8.92	8.91	8.90	8.88	8.87	8.86	8.84	8.83	8.82	8.80	8.79	8.78	8.76	8.75	8.73	8.72	8.70	8.69	8.68	8.67	8.65	8.63	8.62	8.61	8.59	8.58	8.57	8.55	8.54	8.53	8.51	8.50	8.49	8.47	8.46	8.44	8.43	8.41	8.40	8.39	8.37	8.36	8.34	8.33	8.32	8.31	8.29	8.27	8.27	8.25	8.24	8.22	8.21	8.20	8.18	8.17	8.15	8.14	8.13	8.11	8.10	8.08	8.07	8.06	8.05	8.03	8.02	8.00	7.99	7.98	7.97	7.96	7.94	7.93	7.92	7.91	7.90	7.88	7.88	7.86	7.85	7.84	7.83	7.82	7.80	7.79	7.78	7.77	7.75	7.74	7.73	7.72	7.71	7.70	7.69	7.67	7.66	7.65	7.64	7.63	7.61	7.60	7.59	7.58	7.57	7.55	7.54	7.53	7.52	7.51	7.49	7.48	7.47	7.46	7.45	7.43	7.42	7.41	7.40	7.39	7.38	7.36	7.35	7.34	7.33	7.32	7.31	7.29	7.28	7.27	7.26	7.24	7.23	7.22	7.21	7.20	7.18	7.17	7.16	7.15	7.14	7.13	7.11	7.10	7.09	7.08	7.07	7.06	7.04	7.03	7.02	7.01	7.00	6.99	6.98	6.97	6.96	6.95	6.94	6.93	6.92	6.91	6.90	6.89	6.88	6.87	6.86	6.85	6.84	6.83	6.82	6.81	6.80	6.79	6.78	6.77	6.76	6.75	6.74	6.73	6.72	6.71	6.70	6.68	6.68	6.67	6.66	6.65	6.64	6.63	6.62	6.61	6.59	6.59	6.58	6.57	6.56	6.54	6.54	6.52	6.52	6.50	6.50	6.48	6.47	6.47	6.45	6.45	6.43	6.43	6.41	6.40	6.39	6.38	6.37	6.36	6.35	6.34	6.33	6.32	6.31	6.30	6.29	6.28	6.27	6.26	6.25	6.24	6.23	6.22	6.21	6.20	6.20	6.21	6.20	6.19	6.18	6.17	6.16	6.13	6.14	6.12	6.11	6.10	6.08	6.08	6.06	6.05	6.04	6.03	6.01	6.00	5.99	5.97	5.95	5.92	5.91	5.88	5.86	5.84	5.81	5.80	5.77	5.75	5.73	5.70	5.69	5.66	5.64	5.62	5.60	5.58	5.55	5.53	5.51	5.49	5.46	5.44	5.42	5.40	5.37	5.35	5.33	5.31	5.29	5.26	5.24	5.22	5.20	5.18	5.15	5.14	5.11	5.08	5.06	5.04	5.02	4.87	4.72	4.47	4.23	4.04	3.64	3.30	2.72	2.34	1.59	1.00	0.63	0.04	-0.18	-0.37	-0.46	-0.37	-0.18	-0.09	0.05	0.14	0.29	0.47	0.56	0.71	0.80	0.98	1.06	1.20	1.34	1.46	1.62	1.73	1.90	2.01	2.05	2.09	2.12	2.16	2.20	2.24	2.26	2.30	2.35	2.38	2.42	2.44	2.45	2.44	2.45	2.45	2.43	2.44	2.44	2.44	2.44	2.43	2.44	2.43	2.44	2.42	2.43	2.42	2.43	2.42	2.41	2.42	2.42	2.41	2.40	2.41	2.42	2.41	2.42	2.43	2.40	2.35	2.27	2.21	2.17	2.11	2.05	1.95	1.77	1.64	1.39	1.26	1.08	0.99	0.91	0.80	0.75	0.67	0.61	0.50	0.45	0.37	0.29	-0.35	-0.35	-0.42	-0.54	-0.92	-1.26	-1.42	-1.45	-1.63	-1.97	-2.32	-2.32	-2.68	-2.77	-2.79	-2.78	-2.78	-2.91	-2.75	-2.75	-2.75	-2.75	-2.75	-2.74	-2.74	-2.74	-2.74	-2.75	-2.75	-2.79	-2.77	-2.68	-2.68	-2.67	-2.64	-2.64	-2.63	-2.66	-2.65	-2.59	-2.59	-2.51	-2.47	-2.56	-2.63	-2.69	-2.61	-2.54	-2.38	-2.39	-2.40	-2.51	-2.62	-2.61	-2.63	-2.66	-2.69	-2.81	-2.81	-2.81	-2.79	-2.82	-2.89	-2.89	-2.86	-2.81	-2.79	-2.77	-2.73	-2.73	-2.73	-2.74	-2.72	-2.70	-2.72	-2.64	-2.63	-2.50	-2.39	-2.34	-2.22	-2.09	-2.09	-2.02	-2.04	-2.09	-2.02	-2.02	-2.00	-2.04	-2.04	-2.04	-2.02	-2.04	-1.94	-1.81	-1.91	-1.84	-1.79	-1.85	-1.85	-1.87	-1.92	-2.37	-2.40	-2.40	-2.36	-2.39	-2.36	-2.39	-2.39	-2.46	-2.49	-2.50	-2.40
9.72	9.71	9.69	9.67	9.65	9.64	9.62	9.61	9.59	9.58	9.56	9.54	9.53	9.51	9.50	9.48	9.46	9.44	9.43	9.41	9.39	9.38	9.36	9.35	9.33	9.31	9.30	9.28	9.26	9.25	9.23	9.22	9.20	9.18	9.16	9.15	9.13	9.12	9.10	9.08	9.07	9.05	9.04	9.02	9.00	8.98	8.97	8.96	8.94	8.93	8.91	8.90	8.89	8.87	8.86	8.84	8.83	8.82	8.80	8.79	8.77	8.76	8.74	8.73	8.72	8.70	8.69	8.68	8.67	8.65	8.64	8.62	8.61	8.60	8.58	8.57	8.55	8.54	8.53	8.51	8.50	8.48	8.47	8.46	8.45	8.43	8.42	8.41	8.39	8.38	8.36	8.35	8.33	8.32	8.31	8.29	8.28	8.26	8.25	8.24	8.22	8.21	8.20	8.19	8.17	8.16	8.14	8.13	8.12	8.10	8.09	8.07	8.06	8.05	8.03	8.02	8.00	8.00	7.98	7.97	7.96	7.94	7.93	7.92	7.91	7.90	7.88	7.87	7.86	7.85	7.84	7.83	7.81	7.80	7.79	7.78	7.77	7.76	7.75	7.73	7.72	7.71	7.70	7.68	7.67	7.66	7.65	7.64	7.62	7.61	7.60	7.59	7.58	7.56	7.55	7.54	7.53	7.52	7.51	7.50	7.48	7.47	7.46	7.45	7.44	7.42	7.41	7.40	7.39	7.37	7.36	7.35	7.34	7.33	7.32	7.30	7.29	7.28	7.27	7.26	7.25	7.23	7.22	7.21	7.20	7.19	7.17	7.16	7.15	7.14	7.12	7.11	7.10	7.09	7.08	7.07	7.05	7.04	7.03	7.02	7.01	7.00	6.99	6.98	6.97	6.96	6.95	6.94	6.93	6.92	6.91	6.90	6.89	6.88	6.87	6.86	6.85	6.84	6.83	6.82	6.81	6.80	6.79	6.78	6.77	6.76	6.75	6.74	6.73	6.72	6.71	6.70	6.69	6.68	6.67	6.66	6.65	6.64	6.63	6.62	6.61	6.60	6.59	6.57	6.57	6.56	6.55	6.54	6.53	6.52	6.50	6.50	6.48	6.48	6.46	6.46	6.45	6.43	6.43	6.41	6.41	6.39	6.38	6.37	6.36	6.36	6.34	6.33	6.32	6.31	6.30	6.29	6.28	6.27	6.26	6.25	6.24	6.23	6.22	6.21	6.21	6.21	6.22	6.20	6.19	6.18	6.17	6.15	6.15	6.13	6.12	6.11	6.10	6.09	6.07	6.06	6.05	6.03	6.03	6.01	6.00	5.99	5.97	5.95	5.92	5.90	5.88	5.86	5.84	5.82	5.79	5.77	5.75	5.73	5.70	5.68	5.66	5.64	5.61	5.59	5.57	5.55	5.52	5.51	5.48	5.46	5.44	5.41	5.40	5.37	5.36	5.33	5.30	5.29	5.26	5.24	5.22	5.19	5.18	5.15	5.13	5.11	5.09	5.07	5.04	5.02	4.93	4.78	4.50	4.35	4.11	3.72	3.18	2.59	2.22	1.63	1.26	0.50	-0.03	-0.16	-0.34	-0.50	-0.35	-0.26	-0.11	0.07	0.16	0.30	0.40	0.58	0.67	0.81	0.96	1.05	1.22	1.30	1.44	1.55	1.77	1.94	2.01	2.05	2.09	2.13	2.15	2.19	2.24	2.27	2.31	2.34	2.37	2.41	2.41	2.42	2.41	2.41	2.40	2.41	2.40	2.40	2.40	2.40	2.40	2.38	2.39	2.40	2.39	2.40	2.38	2.39	2.38	2.39	2.38	2.38	2.38	2.38	2.37	2.36	2.37	2.38	2.39	2.37	2.33	2.27	2.23	2.15	2.09	2.05	1.95	1.76	1.57	1.44	1.26	1.01	0.95	0.87	0.82	0.74	0.66	0.58	0.50	0.44	0.33	0.27	-0.34	-0.36	-0.61	-0.75	-0.93	-1.09	-1.30	-1.65	-1.65	-2.02	-2.17	-2.56	-2.69	-2.69	-2.77	-2.79	-2.89	-2.85	-2.85	-2.75	-2.74	-2.74	-2.73	-2.74	-2.74	-2.74	-2.74	-2.74	-2.74	-2.77	-2.75	-2.68	-2.70	-2.69	-2.66	-2.61	-2.63	-2.63	-2.63	-2.59	-2.60	-2.62	-2.52	-2.51	-2.63	-2.68	-2.67	-2.66	-2.53	-2.43	-2.49	-2.53	-2.57	-2.62	-2.63	-2.63	-2.68	-2.77	-2.79	-2.78	-2.78	-2.81	-2.92	-2.90	-2.85	-2.85	-2.81	-2.78	-2.73	-2.71	-2.71	-2.70	-2.72	-2.70	-2.71	-2.70	-2.48	-2.50	-2.39	-2.34	-2.11	-2.10	-2.02	-1.99	-1.98	-2.00	-2.02	-1.97	-2.00	-2.00	-2.02	-2.04	-2.01	-1.99	-1.99	-1.98	-1.93	-1.93	-1.92	-1.83	-1.94	-2.01	-2.01	-2.26	-2.41	-2.40	-2.41	-2.41	-2.42	-2.43	-2.47	-2.37	-2.37	-2.32	-2.36
9.72	9.70	9.69	9.67	9.66	9.64	9.63	9.61	9.59	9.57	9.56	9.55	9.53	9.51	9.49	9.47	9.46	9.44	9.43	9.41	9.40	9.38	9.36	9.35	9.33	9.32	9.30	9.28	9.27	9.25	9.23	9.21	9.20	9.18	9.16	9.15	9.13	9.12	9.10	9.09	9.07	9.05	9.04	9.02	9.00	8.98	8.97	8.95	8.94	8.93	8.91	8.90	8.88	8.87	8.86	8.84	8.83	8.82	8.81	8.79	8.78	8.76	8.75	8.74	8.72	8.71	8.69	8.68	8.67	8.65	8.64	8.62	8.61	8.60	8.59	8.57	8.56	8.54	8.53	8.52	8.50	8.49	8.47	8.46	8.45	8.43	8.42	8.40	8.39	8.38	8.36	8.35	8.34	8.33	8.31	8.30	8.28	8.27	8.25	8.24	8.23	8.21	8.20	8.18	8.17	8.16	8.14	8.13	8.12	8.10	8.09	8.07	8.06	8.05	8.04	8.02	8.00	7.99	7.98	7.97	7.96	7.95	7.93	7.92	7.91	7.90	7.89	7.88	7.86	7.85	7.84	7.83	7.81	7.80	7.79	7.78	7.77	7.75	7.74	7.73	7.72	7.71	7.70	7.68	7.67	7.66	7.65	7.64	7.63	7.62	7.60	7.59	7.58	7.57	7.55	7.54	7.53	7.52	7.50	7.49	7.48	7.47	7.46	7.45	7.43	7.42	7.41	7.40	7.39	7.38	7.36	7.35	7.34	7.33	7.32	7.30	7.29	7.28	7.27	7.25	7.24	7.23	7.22	7.21	7.19	7.18	7.17	7.16	7.15	7.14	7.13	7.11	7.10	7.09	7.08	7.07	7.05	7.04	7.03	7.02	7.01	7.00	6.99	6.98	6.97	6.96	6.95	6.94	6.93	6.92	6.91	6.90	6.89	6.88	6.87	6.86	6.85	6.84	6.83	6.82	6.81	6.80	6.79	6.78	6.77	6.76	6.75	6.74	6.73	6.72	6.71	6.70	6.69	6.68	6.67	6.66	6.65	6.64	6.63	6.62	6.61	6.60	6.59	6.58	6.57	6.56	6.55	6.54	6.53	6.52	6.51	6.50	6.48	6.48	6.46	6.46	6.44	6.44	6.43	6.41	6.40	6.39	6.39	6.37	6.37	6.35	6.34	6.34	6.32	6.31	6.30	6.30	6.28	6.27	6.26	6.25	6.25	6.23	6.22	6.22	6.22	6.22	6.21	6.21	6.19	6.19	6.16	6.16	6.15	6.14	6.12	6.11	6.10	6.09	6.07	6.06	6.05	6.04	6.03	6.01	6.00	5.99	5.97	5.94	5.92	5.90	5.88	5.85	5.83	5.81	5.79	5.77	5.74	5.72	5.70	5.68	5.66	5.63	5.62	5.59	5.56	5.55	5.52	5.51	5.48	5.46	5.44	5.41	5.40	5.37	5.35	5.33	5.31	5.28	5.26	5.24	5.22	5.19	5.17	5.15	5.13	5.10	5.08	5.06	5.05	5.02	4.99	4.76	4.52	4.37	4.05	3.75	3.21	2.83	2.08	1.50	1.12	0.55	0.00	-0.17	-0.29	-0.47	-0.37	-0.25	-0.10	-0.01	0.14	0.27	0.41	0.56	0.65	0.83	0.92	1.06	1.15	1.32	1.48	1.59	1.76	1.87	2.02	2.06	2.09	2.13	2.16	2.20	2.23	2.27	2.32	2.34	2.38	2.38	2.37	2.37	2.37	2.38	2.38	2.37	2.36	2.37	2.36	2.36	2.36	2.36	2.36	2.35	2.35	2.35	2.35	2.36	2.34	2.35	2.34	2.35	2.33	2.34	2.34	2.34	2.33	2.33	2.34	2.35	2.30	2.24	2.20	2.14	2.10	2.02	1.94	1.75	1.57	1.37	1.19	1.06	0.95	0.86	0.78	0.70	0.64	0.53	0.48	0.40	0.34	0.26	-0.35	-0.36	-0.45	-0.81	-0.97	-1.13	-1.35	-1.51	-1.90	-2.29	-2.29	-2.46	-2.70	-2.74	-2.75	-2.75	-2.80	-2.93	-2.82	-2.74	-2.74	-2.73	-2.73	-2.74	-2.73	-2.73	-2.73	-2.73	-2.74	-2.75	-2.81	-2.70	-2.74	-2.69	-2.85	-2.68	-2.61	-2.63	-2.60	-2.61	-2.62	-2.62	-2.58	-2.60	-2.58	-2.68	-2.67	-2.65	-2.50	-2.45	-2.49	-2.62	-2.62	-2.60	-2.62	-2.66	-2.73	-2.73	-2.77	-2.80	-2.80	-2.93	-2.93	-2.92	-2.76	-2.84	-2.76	-2.81	-2.72	-2.71	-2.71	-2.72	-2.76	-2.73	-2.70	-2.70	-2.59	-2.48	-2.46	-2.14	-2.11	-2.07	-2.00	-1.99	-1.99	-1.97	-1.97	-2.07	-2.00	-2.00	-2.00	-2.03	-2.01	-2.00	-2.00	-2.02	-2.00	-2.01	-2.01	-2.01	-1.97	-1.92	-2.04	-2.36	-2.36	-2.38	-2.38	-2.41	-2.41	-2.41	-2.29	-2.20	-2.22	-2.20	-2.29
9.72	9.71	9.69	9.67	9.66	9.64	9.62	9.61	9.59	9.58	9.56	9.54	9.52	9.51	9.50	9.48	9.46	9.44	9.43	9.41	9.40	9.38	9.37	9.34	9.33	9.32	9.30	9.29	9.26	9.25	9.23	9.22	9.20	9.18	9.17	9.15	9.14	9.12	9.10	9.09	9.07	9.05	9.04	9.02	9.01	8.98	8.97	8.96	8.95	8.93	8.92	8.90	8.89	8.87	8.86	8.85	8.83	8.82	8.80	8.79	8.78	8.76	8.75	8.74	8.73	8.71	8.69	8.68	8.67	8.66	8.64	8.63	8.61	8.60	8.59	8.57	8.56	8.54	8.53	8.51	8.50	8.49	8.47	8.46	8.44	8.43	8.42	8.40	8.39	8.38	8.37	8.35	8.33	8.32	8.31	8.30	8.28	8.27	8.25	8.24	8.22	8.21	8.20	8.18	8.17	8.15	8.14	8.13	8.12	8.10	8.09	8.08	8.06	8.04	8.03	8.02	8.01	7.99	7.98	7.97	7.96	7.94	7.93	7.92	7.91	7.90	7.88	7.87	7.86	7.85	7.84	7.83	7.82	7.80	7.79	7.78	7.77	7.76	7.74	7.73	7.72	7.71	7.70	7.68	7.67	7.66	7.65	7.63	7.62	7.61	7.60	7.59	7.58	7.56	7.55	7.54	7.53	7.52	7.51	7.49	7.48	7.47	7.46	7.45	7.43	7.42	7.41	7.40	7.38	7.37	7.36	7.35	7.34	7.33	7.31	7.30	7.29	7.28	7.27	7.26	7.24	7.23	7.22	7.21	7.20	7.18	7.17	7.16	7.15	7.14	7.12	7.11	7.10	7.09	7.08	7.06	7.06	7.04	7.03	7.02	7.01	7.00	6.99	6.98	6.97	6.96	6.95	6.94	6.93	6.93	6.92	6.90	6.89	6.88	6.87	6.86	6.85	6.84	6.83	6.82	6.81	6.80	6.79	6.78	6.77	6.76	6.75	6.74	6.73	6.72	6.71	6.70	6.69	6.68	6.67	6.66	6.65	6.64	6.63	6.62	6.61	6.60	6.59	6.58	6.57	6.56	6.55	6.54	6.53	6.51	6.51	6.50	6.49	6.48	6.47	6.46	6.45	6.44	6.42	6.42	6.41	6.40	6.38	6.37	6.37	6.35	6.34	6.33	6.33	6.32	6.30	6.29	6.28	6.28	6.26	6.25	6.24	6.23	6.23	6.23	6.24	6.23	6.22	6.21	6.19	6.18	6.16	6.17	6.15	6.13	6.13	6.11	6.10	6.09	6.08	6.06	6.05	6.04	6.02	6.02	6.00	5.99	5.96	5.94	5.92	5.89	5.88	5.85	5.84	5.81	5.78	5.77	5.74	5.72	5.70	5.68	5.66	5.63	5.61	5.59	5.57	5.55	5.52	5.50	5.48	5.46	5.43	5.41	5.39	5.38	5.34	5.32	5.31	5.28	5.27	5.24	5.22	5.20	5.17	5.15	5.13	5.11	5.09	5.06	5.04	5.02	5.00	4.71	4.56	4.32	4.14	3.70	3.07	2.69	2.11	1.73	0.98	0.40	0.02	-0.15	-0.30	-0.49	-0.42	-0.27	-0.08	0.01	0.16	0.25	0.39	0.52	0.66	0.81	0.90	1.08	1.16	1.30	1.41	1.63	1.80	1.91	2.02	2.04	2.10	2.12	2.16	2.20	2.24	2.28	2.30	2.34	2.33	2.34	2.35	2.34	2.33	2.33	2.33	2.33	2.34	2.33	2.32	2.33	2.33	2.32	2.31	2.32	2.33	2.31	2.31	2.31	2.31	2.30	2.30	2.31	2.30	2.31	2.29	2.30	2.29	2.30	2.29	2.30	2.30	2.26	2.18	2.12	2.08	2.02	1.86	1.68	1.55	1.36	1.18	1.00	0.90	0.85	0.77	0.68	0.60	0.52	0.47	0.36	0.30	0.22	-0.34	-0.44	-0.61	-0.65	-0.85	-1.21	-1.62	-1.62	-2.06	-2.19	-2.34	-2.63	-2.63	-2.76	-2.78	-2.77	-2.80	-2.80	-2.81	-2.72	-2.73	-2.72	-2.72	-2.73	-2.72	-2.73	-2.72	-2.73	-2.73	-2.80	-2.81	-2.97	-3.08	-3.02	-2.85	-2.85	-2.64	-2.58	-2.60	-2.59	-2.59	-2.60	-2.54	-2.60	-2.65	-2.64	-2.67	-2.56	-2.44	-2.46	-2.50	-2.68	-2.63	-2.60	-2.60	-2.65	-2.70	-2.75	-2.79	-2.79	-2.90	-2.84	-2.89	-2.77	-2.77	-2.76	-2.73	-2.74	-2.74	-2.68	-2.72	-2.81	-2.76	-2.75	-2.74	-2.68	-2.57	-2.48	-2.40	-2.12	-2.09	-2.01	-2.02	-2.00	-1.99	-1.97	-2.02	-2.01	-2.03	-1.99	-2.00	-2.03	-2.02	-2.00	-2.01	-2.10	-2.10	-2.06	-2.04	-2.01	-1.99	-1.99	-2.18	-2.23	-2.38	-2.37	-2.37	-2.37	-2.29	-2.30	-2.21	-2.18	-2.20	-2.21	-2.20
9.72	9.71	9.69	9.68	9.66	9.64	9.63	9.61	9.59	9.57	9.56	9.54	9.53	9.51	9.49	9.48	9.46	9.45	9.43	9.42	9.40	9.38	9.36	9.35	9.33	9.31	9.30	9.28	9.26	9.25	9.23	9.22	9.20	9.19	9.17	9.15	9.14	9.12	9.10	9.08	9.07	9.05	9.03	9.02	9.00	8.99	8.97	8.95	8.94	8.93	8.92	8.90	8.89	8.87	8.86	8.84	8.83	8.82	8.80	8.79	8.77	8.76	8.75	8.74	8.72	8.71	8.70	8.68	8.66	8.65	8.64	8.63	8.61	8.60	8.58	8.57	8.55	8.54	8.53	8.51	8.50	8.48	8.47	8.46	8.45	8.43	8.42	8.41	8.39	8.37	8.36	8.35	8.34	8.32	8.31	8.29	8.28	8.27	8.25	8.24	8.22	8.21	8.19	8.18	8.17	8.16	8.14	8.13	8.12	8.10	8.09	8.07	8.06	8.05	8.03	8.02	8.01	7.99	7.98	7.96	7.96	7.94	7.93	7.92	7.91	7.90	7.89	7.88	7.86	7.85	7.84	7.83	7.81	7.80	7.79	7.78	7.76	7.75	7.74	7.73	7.72	7.71	7.69	7.68	7.67	7.66	7.65	7.64	7.63	7.61	7.60	7.59	7.58	7.56	7.55	7.54	7.53	7.51	7.50	7.49	7.48	7.47	7.46	7.45	7.43	7.42	7.41	7.40	7.39	7.38	7.36	7.35	7.34	7.33	7.31	7.30	7.29	7.28	7.27	7.25	7.24	7.23	7.22	7.21	7.20	7.18	7.17	7.16	7.15	7.14	7.12	7.11	7.10	7.09	7.08	7.07	7.05	7.04	7.04	7.02	7.01	7.00	6.99	6.98	6.97	6.96	6.95	6.94	6.93	6.92	6.92	6.90	6.89	6.88	6.87	6.86	6.85	6.84	6.83	6.82	6.81	6.80	6.79	6.78	6.77	6.76	6.75	6.74	6.73	6.72	6.71	6.70	6.69	6.68	6.67	6.66	6.65	6.64	6.63	6.62	6.61	6.60	6.59	6.58	6.57	6.56	6.55	6.54	6.53	6.52	6.51	6.50	6.49	6.48	6.47	6.45	6.45	6.44	6.43	6.42	6.40	6.40	6.39	6.38	6.36	6.35	6.35	6.34	6.33	6.31	6.31	6.30	6.28	6.27	6.26	6.26	6.24	6.24	6.24	6.24	6.24	6.23	6.22	6.21	6.20	6.18	6.17	6.16	6.15	6.14	6.12	6.11	6.10	6.09	6.07	6.06	6.05	6.04	6.03	6.01	6.00	5.99	5.96	5.94	5.92	5.90	5.88	5.85	5.83	5.81	5.79	5.76	5.75	5.72	5.70	5.67	5.65	5.64	5.61	5.59	5.57	5.54	5.53	5.50	5.48	5.46	5.44	5.42	5.39	5.37	5.35	5.33	5.30	5.28	5.26	5.24	5.21	5.19	5.18	5.15	5.13	5.11	5.08	5.07	5.04	5.02	4.96	4.72	4.57	4.23	3.92	3.49	3.18	2.72	1.97	1.59	1.01	0.63	-0.03	-0.13	-0.28	-0.46	-0.40	-0.25	-0.16	-0.01	0.11	0.26	0.41	0.50	0.65	0.77	0.92	1.01	1.15	1.34	1.45	1.62	1.73	1.95	2.01	2.05	2.09	2.13	2.17	2.20	2.24	2.26	2.30	2.31	2.31	2.31	2.29	2.30	2.29	2.30	2.29	2.29	2.30	2.29	2.28	2.29	2.28	2.29	2.29	2.28	2.27	2.28	2.29	2.27	2.27	2.27	2.28	2.26	2.26	2.27	2.26	2.26	2.25	2.26	2.25	2.26	2.27	2.23	2.17	2.13	2.05	2.01	1.85	1.66	1.47	1.28	1.16	1.00	0.90	0.81	0.73	0.67	0.59	0.50	0.43	0.37	0.29	0.18	-0.30	-0.36	-0.47	-0.87	-0.87	-1.32	-1.50	-1.96	-2.11	-2.11	-2.45	-2.54	-2.71	-2.78	-2.78	-2.78	-2.72	-2.78	-2.73	-2.72	-2.72	-2.72	-2.72	-2.73	-2.72	-2.73	-2.72	-2.73	-2.72	-2.78	-2.93	-3.17	-3.08	-3.13	-3.00	-2.78	-2.58	-2.58	-2.56	-2.59	-2.59	-2.56	-2.57	-2.54	-2.58	-2.64	-2.62	-2.53	-2.47	-2.37	-2.50	-2.50	-2.66	-2.62	-2.63	-2.69	-2.69	-2.70	-2.76	-2.89	-2.84	-2.84	-2.76	-2.83	-2.79	-2.77	-2.74	-2.69	-2.75	-2.69	-2.79	-2.80	-2.78	-2.79	-2.74	-2.72	-2.55	-2.49	-2.24	-2.24	-2.07	-2.05	-2.02	-2.01	-2.02	-1.99	-1.99	-2.01	-2.01	-2.00	-2.04	-2.07	-2.02	-2.00	-2.00	-2.06	-2.08	-2.03	-2.03	-2.02	-2.01	-2.10	-2.38	-2.38	-2.35	-2.36	-2.36	-2.31	-2.31	-2.26	-2.16	-2.16	-2.19	-2.21	-2.18
9.73	9.70	9.69	9.67	9.66	9.65	9.62	9.61	9.59	9.58	9.56	9.54	9.53	9.51	9.49	9.48	9.46	9.45	9.43	9.41	9.39	9.38	9.37	9.34	9.33	9.31	9.30	9.28	9.27	9.25	9.23	9.21	9.20	9.18	9.17	9.16	9.13	9.11	9.10	9.08	9.07	9.05	9.04	9.02	9.00	8.99	8.97	8.96	8.94	8.93	8.91	8.90	8.89	8.87	8.86	8.84	8.83	8.81	8.80	8.79	8.77	8.76	8.75	8.74	8.72	8.70	8.69	8.68	8.67	8.65	8.64	8.62	8.61	8.60	8.58	8.57	8.55	8.54	8.52	8.51	8.50	8.48	8.47	8.46	8.45	8.43	8.42	8.40	8.39	8.38	8.36	8.35	8.33	8.32	8.31	8.29	8.28	8.26	8.25	8.24	8.22	8.21	8.19	8.18	8.16	8.15	8.14	8.13	8.11	8.10	8.09	8.07	8.05	8.04	8.03	8.02	8.01	8.00	7.98	7.96	7.95	7.94	7.93	7.92	7.91	7.90	7.88	7.87	7.86	7.85	7.84	7.83	7.81	7.80	7.79	7.78	7.77	7.76	7.74	7.73	7.72	7.71	7.69	7.68	7.67	7.66	7.65	7.63	7.62	7.61	7.60	7.59	7.58	7.56	7.55	7.54	7.53	7.52	7.51	7.49	7.48	7.47	7.46	7.44	7.43	7.42	7.41	7.40	7.38	7.37	7.36	7.35	7.34	7.32	7.31	7.30	7.29	7.28	7.27	7.26	7.24	7.23	7.22	7.21	7.20	7.18	7.17	7.16	7.15	7.13	7.12	7.11	7.10	7.09	7.07	7.07	7.06	7.05	7.03	7.03	7.01	7.00	6.99	6.98	6.97	6.96	6.95	6.94	6.93	6.93	6.91	6.91	6.89	6.89	6.87	6.86	6.85	6.84	6.83	6.82	6.81	6.80	6.79	6.78	6.77	6.76	6.75	6.74	6.73	6.72	6.71	6.70	6.69	6.68	6.67	6.66	6.65	6.64	6.63	6.62	6.61	6.60	6.59	6.58	6.57	6.56	6.55	6.54	6.53	6.52	6.51	6.50	6.49	6.48	6.47	6.46	6.45	6.43	6.43	6.42	6.41	6.40	6.38	6.38	6.37	6.36	6.34	6.34	6.33	6.32	6.31	6.29	6.29	6.28	6.27	6.25	6.24	6.25	6.25	6.25	6.24	6.24	6.22	6.20	6.18	6.19	6.18	6.16	6.15	6.14	6.12	6.11	6.10	6.09	6.08	6.07	6.05	6.04	6.03	6.01	6.00	5.98	5.96	5.94	5.91	5.90	5.87	5.86	5.82	5.80	5.79	5.76	5.75	5.72	5.70	5.68	5.65	5.63	5.61	5.59	5.57	5.54	5.52	5.50	5.48	5.45	5.44	5.41	5.40	5.37	5.34	5.33	5.30	5.29	5.26	5.24	5.22	5.19	5.17	5.15	5.13	5.11	5.09	5.06	5.04	5.02	4.97	4.76	4.52	4.32	3.88	3.27	2.97	2.53	2.20	1.44	1.07	0.49	-0.02	-0.12	-0.31	-0.41	-0.43	-0.33	-0.15	0.00	0.09	0.24	0.37	0.52	0.61	0.75	0.93	1.02	1.16	1.27	1.44	1.66	1.77	1.94	2.01	2.06	2.09	2.13	2.17	2.21	2.24	2.27	2.28	2.26	2.26	2.27	2.27	2.27	2.25	2.26	2.26	2.26	2.25	2.25	2.26	2.25	2.24	2.24	2.25	2.25	2.23	2.24	2.23	2.24	2.24	2.23	2.23	2.23	2.24	2.22	2.22	2.22	2.23	2.22	2.21	2.22	2.21	2.23	2.17	2.11	2.05	2.01	1.77	1.64	1.46	1.33	1.10	0.96	0.90	0.81	0.71	0.63	0.57	0.49	0.41	0.32	0.25	0.19	-0.30	-0.40	-0.54	-0.68	-1.08	-1.59	-1.59	-1.83	-2.02	-2.33	-2.54	-2.54	-2.71	-2.76	-2.78	-2.72	-2.72	-2.71	-2.77	-2.73	-2.75	-2.72	-2.74	-2.79	-2.75	-2.78	-2.78	-2.74	-2.73	-2.78	-2.90	-3.08	-3.21	-3.18	-3.18	-2.82	-2.61	-2.58	-2.57	-2.56	-2.58	-2.63	-2.57	-2.60	-2.61	-2.58	-2.58	-2.53	-2.46	-2.38	-2.36	-2.57	-2.63	-2.63	-2.63	-2.65	-2.70	-2.73	-2.73	-2.78	-2.84	-2.71	-2.71	-2.75	-2.77	-2.67	-2.67	-2.71	-2.69	-2.76	-2.76	-2.80	-2.74	-2.77	-2.78	-2.61	-2.55	-2.51	-2.32	-2.10	-2.08	-2.08	-2.10	-2.05	-2.02	-1.99	-1.99	-1.98	-1.94	-2.00	-2.06	-2.07	-2.07	-1.98	-2.00	-2.06	-2.06	-2.05	-2.03	-1.99	-1.99	-1.99	-2.21	-2.35	-2.33	-2.33	-2.27	-2.28	-2.28	-2.30	-2.22	-2.17	-2.21	-2.20	-2.19
9.72	9.71	9.69	9.67	9.66	9.64	9.62	9.61	9.59	9.58	9.56	9.55	9.52	9.51	9.50	9.48	9.46	9.44	9.43	9.41	9.39	9.38	9.36	9.35	9.33	9.31	9.30	9.28	9.27	9.24	9.23	9.21	9.20	9.18	9.16	9.15	9.13	9.12	9.10	9.09	9.07	9.05	9.03	9.02	9.00	8.99	8.97	8.96	8.94	8.93	8.91	8.90	8.88	8.87	8.85	8.84	8.83	8.81	8.80	8.78	8.77	8.76	8.75	8.73	8.72	8.71	8.69	8.67	8.66	8.65	8.64	8.62	8.61	8.59	8.58	8.57	8.55	8.54	8.52	8.51	8.49	8.48	8.47	8.46	8.44	8.43	8.42	8.40	8.39	8.37	8.36	8.35	8.33	8.32	8.30	8.29	8.28	8.26	8.25	8.23	8.22	8.20	8.19	8.18	8.17	8.16	8.14	8.13	8.11	8.10	8.08	8.07	8.06	8.04	8.03	8.02	8.01	8.00	7.98	7.97	7.95	7.94	7.93	7.92	7.91	7.90	7.89	7.87	7.86	7.85	7.84	7.82	7.81	7.80	7.79	7.78	7.76	7.75	7.74	7.73	7.72	7.71	7.69	7.68	7.67	7.66	7.65	7.64	7.62	7.61	7.60	7.59	7.58	7.56	7.55	7.54	7.53	7.51	7.50	7.49	7.48	7.47	7.46	7.44	7.43	7.42	7.41	7.40	7.39	7.37	7.36	7.35	7.34	7.33	7.31	7.30	7.29	7.28	7.26	7.25	7.24	7.23	7.22	7.21	7.19	7.18	7.17	7.16	7.15	7.14	7.12	7.11	7.10	7.09	7.08	7.07	7.06	7.05	7.03	7.02	7.01	7.00	6.99	6.99	6.97	6.96	6.96	6.94	6.93	6.92	6.91	6.91	6.90	6.89	6.87	6.87	6.85	6.84	6.83	6.82	6.82	6.80	6.79	6.78	6.77	6.76	6.75	6.74	6.73	6.72	6.71	6.70	6.69	6.68	6.67	6.66	6.65	6.64	6.63	6.62	6.61	6.60	6.59	6.58	6.57	6.56	6.55	6.54	6.53	6.52	6.51	6.50	6.49	6.48	6.47	6.46	6.45	6.44	6.43	6.42	6.41	6.40	6.39	6.38	6.37	6.36	6.35	6.34	6.32	6.32	6.31	6.30	6.29	6.27	6.27	6.26	6.26	6.26	6.26	6.26	6.24	6.23	6.22	6.20	6.19	6.18	6.17	6.16	6.15	6.14	6.13	6.11	6.10	6.09	6.07	6.07	6.05	6.04	6.03	6.01	6.00	5.98	5.97	5.94	5.92	5.90	5.87	5.85	5.83	5.81	5.78	5.76	5.74	5.72	5.70	5.67	5.66	5.63	5.62	5.59	5.56	5.55	5.52	5.50	5.48	5.46	5.44	5.41	5.39	5.37	5.35	5.33	5.30	5.28	5.26	5.24	5.21	5.20	5.17	5.16	5.13	5.10	5.09	5.06	5.04	5.02	5.00	4.77	4.54	4.10	3.67	3.36	2.93	2.32	2.01	1.47	1.10	0.34	-0.01	-0.15	-0.30	-0.44	-0.41	-0.32	-0.17	-0.08	0.11	0.25	0.35	0.50	0.62	0.77	0.86	1.01	1.20	1.31	1.48	1.59	1.81	1.92	2.02	2.06	2.09	2.14	2.16	2.20	2.23	2.23	2.24	2.23	2.24	2.22	2.23	2.22	2.23	2.23	2.21	2.22	2.22	2.22	2.20	2.21	2.22	2.21	2.20	2.20	2.21	2.20	2.19	2.20	2.20	2.20	2.20	2.19	2.18	2.19	2.20	2.18	2.18	2.18	2.19	2.18	2.17	2.19	2.16	2.08	2.04	1.94	1.76	1.63	1.38	1.27	1.10	0.99	0.87	0.78	0.71	0.62	0.53	0.45	0.39	0.31	0.20	-0.22	-0.36	-0.44	-0.54	-0.72	-1.05	-1.29	-1.63	-1.99	-1.99	-2.21	-2.37	-2.59	-2.71	-2.71	-2.78	-2.72	-2.69	-2.72	-2.73	-2.80	-2.84	-2.79	-2.86	-2.84	-2.83	-2.81	-2.78	-2.79	-2.74	-2.74	-2.93	-2.93	-3.04	-3.04	-2.99	-2.65	-2.65	-2.60	-2.55	-2.56	-2.63	-2.63	-2.62	-2.62	-2.61	-2.61	-2.57	-2.52	-2.44	-2.38	-2.36	-2.55	-2.67	-2.61	-2.63	-2.63	-2.68	-2.70	-2.73	-2.71	-2.71	-2.72	-2.72	-2.74	-2.68	-2.70	-2.67	-2.69	-2.71	-2.63	-2.64	-2.70	-2.73	-2.77	-2.69	-2.64	-2.57	-2.47	-2.47	-2.29	-2.15	-2.15	-2.09	-2.09	-2.05	-2.02	-1.99	-1.96	-1.93	-1.98	-2.06	-2.07	-2.08	-2.02	-2.03	-2.08	-2.06	-2.06	-2.01	-2.00	-1.96	-2.11	-2.11	-2.38	-2.34	-2.27	-2.26	-2.28	-2.33	-2.30	-2.22	-2.24	-2.20	-2.20	-2.19
9.72	9.71	9.69	9.67	9.66	9.64	9.63	9.61	9.60	9.57	9.55	9.54	9.53	9.51	9.49	9.48	9.46	9.44	9.43	9.41	9.40	9.38	9.36	9.34	9.33	9.32	9.29	9.28	9.26	9.25	9.23	9.21	9.20	9.18	9.17	9.15	9.13	9.12	9.10	9.08	9.06	9.05	9.03	9.02	9.00	8.98	8.97	8.96	8.94	8.92	8.91	8.90	8.88	8.87	8.85	8.84	8.82	8.81	8.80	8.78	8.77	8.76	8.75	8.73	8.72	8.70	8.69	8.68	8.66	8.65	8.63	8.62	8.61	8.59	8.58	8.56	8.55	8.54	8.52	8.51	8.49	8.48	8.47	8.46	8.44	8.43	8.41	8.40	8.39	8.37	8.36	8.34	8.33	8.32	8.30	8.29	8.27	8.26	8.25	8.23	8.22	8.20	8.19	8.18	8.17	8.15	8.14	8.12	8.11	8.10	8.08	8.07	8.05	8.04	8.03	8.02	8.01	7.99	7.98	7.97	7.95	7.94	7.92	7.92	7.91	7.89	7.88	7.87	7.86	7.85	7.84	7.82	7.81	7.80	7.79	7.78	7.77	7.75	7.74	7.73	7.72	7.71	7.69	7.68	7.67	7.66	7.64	7.63	7.62	7.61	7.60	7.59	7.58	7.56	7.55	7.54	7.53	7.52	7.51	7.49	7.48	7.47	7.46	7.44	7.43	7.42	7.41	7.39	7.38	7.37	7.36	7.35	7.34	7.33	7.31	7.30	7.29	7.28	7.27	7.26	7.24	7.23	7.22	7.21	7.19	7.18	7.17	7.16	7.14	7.13	7.12	7.11	7.10	7.09	7.08	7.07	7.06	7.04	7.04	7.03	7.01	7.00	6.99	6.99	6.97	6.96	6.95	6.94	6.94	6.92	6.92	6.90	6.90	6.89	6.87	6.87	6.85	6.85	6.83	6.82	6.81	6.80	6.80	6.78	6.77	6.76	6.76	6.74	6.73	6.72	6.71	6.70	6.69	6.68	6.67	6.66	6.65	6.64	6.63	6.62	6.61	6.60	6.59	6.58	6.57	6.56	6.55	6.54	6.53	6.52	6.51	6.50	6.49	6.48	6.47	6.46	6.45	6.44	6.43	6.42	6.41	6.40	6.39	6.38	6.37	6.36	6.35	6.34	6.33	6.32	6.31	6.30	6.29	6.28	6.27	6.26	6.27	6.27	6.27	6.26	6.25	6.24	6.20	6.21	6.20	6.19	6.17	6.16	6.15	6.14	6.13	6.11	6.10	6.09	6.08	6.06	6.05	6.04	6.03	6.01	6.00	6.00	5.98	5.95	5.93	5.91	5.89	5.86	5.84	5.82	5.79	5.77	5.74	5.73	5.70	5.68	5.65	5.63	5.61	5.59	5.57	5.54	5.52	5.50	5.48	5.46	5.43	5.42	5.39	5.36	5.35	5.32	5.31	5.28	5.26	5.24	5.21	5.20	5.17	5.15	5.13	5.11	5.08	5.06	5.04	5.02	4.95	4.72	4.49	4.06	3.45	3.15	2.71	2.41	1.97	1.50	0.95	0.37	0.00	-0.19	-0.29	-0.41	-0.39	-0.26	-0.14	-0.04	0.09	0.23	0.36	0.45	0.60	0.75	0.88	1.02	1.12	1.30	1.46	1.63	1.80	1.91	2.03	2.06	2.10	2.12	2.16	2.20	2.20	2.20	2.20	2.19	2.19	2.19	2.20	2.18	2.19	2.18	2.19	2.18	2.18	2.18	2.18	2.18	2.16	2.17	2.18	2.17	2.16	2.16	2.17	2.16	2.15	2.16	2.16	2.16	2.14	2.15	2.15	2.15	2.16	2.14	2.15	2.14	2.15	2.13	2.14	2.08	2.04	1.86	1.73	1.55	1.44	1.21	1.04	0.96	0.87	0.80	0.68	0.62	0.52	0.44	0.35	0.27	-0.24	-0.22	-0.24	-0.46	-0.58	-0.90	-1.09	-1.09	-1.52	-1.77	-2.05	-2.31	-2.31	-2.47	-2.60	-2.75	-2.77	-2.77	-2.73	-2.73	-2.76	-2.85	-2.87	-2.84	-2.80	-2.84	-2.82	-2.82	-2.80	-2.77	-2.74	-2.75	-2.91	-2.99	-3.01	-3.01	-2.97	-2.75	-2.63	-2.55	-2.55	-2.53	-2.62	-2.63	-2.63	-2.65	-2.65	-2.63	-2.57	-2.50	-2.42	-2.37	-2.40	-2.57	-2.57	-2.63	-2.61	-2.61	-2.66	-2.66	-2.66	-2.69	-2.71	-2.76	-2.72	-2.70	-2.69	-2.65	-2.64	-2.66	-2.65	-2.62	-2.60	-2.60	-2.69	-2.67	-2.66	-2.66	-2.61	-2.52	-2.43	-2.17	-2.17	-2.17	-2.10	-2.08	-2.05	-2.03	-2.00	-1.96	-1.93	-2.07	-2.06	-2.05	-2.05	-2.02	-2.03	-2.08	-2.07	-2.02	-1.97	-1.97	-1.96	-1.99	-2.16	-2.43	-2.43	-2.27	-2.26	-2.33	-2.34	-2.33	-2.29	-2.23	-2.23	-2.18	-2.18
9.72	9.71	9.69	9.67	9.66	9.64	9.63	9.60	9.59	9.57	9.56	9.54	9.53	9.51	9.49	9.47	9.46	9.45	9.43	9.41	9.39	9.37	9.36	9.35	9.33	9.31	9.29	9.28	9.26	9.25	9.23	9.22	9.20	9.18	9.16	9.15	9.14	9.11	9.10	9.08	9.07	9.05	9.03	9.02	9.00	8.99	8.97	8.95	8.94	8.92	8.91	8.89	8.88	8.87	8.85	8.84	8.82	8.81	8.79	8.78	8.77	8.76	8.74	8.73	8.72	8.70	8.69	8.67	8.66	8.65	8.63	8.62	8.60	8.59	8.58	8.56	8.55	8.53	8.52	8.50	8.49	8.48	8.47	8.46	8.44	8.43	8.41	8.40	8.38	8.37	8.36	8.34	8.33	8.31	8.30	8.29	8.27	8.26	8.24	8.23	8.22	8.20	8.19	8.18	8.17	8.15	8.14	8.12	8.11	8.09	8.08	8.07	8.05	8.05	8.03	8.02	8.01	8.00	7.98	7.97	7.96	7.94	7.92	7.91	7.91	7.90	7.88	7.87	7.86	7.85	7.84	7.82	7.81	7.80	7.79	7.78	7.76	7.75	7.74	7.73	7.72	7.71	7.69	7.68	7.67	7.66	7.65	7.64	7.62	7.61	7.60	7.59	7.57	7.56	7.55	7.54	7.53	7.51	7.50	7.49	7.48	7.47	7.45	7.44	7.43	7.42	7.41	7.40	7.39	7.37	7.36	7.35	7.34	7.32	7.31	7.30	7.29	7.28	7.26	7.25	7.24	7.23	7.22	7.20	7.19	7.18	7.17	7.16	7.15	7.14	7.12	7.11	7.10	7.09	7.08	7.07	7.06	7.05	7.04	7.02	7.01	7.00	7.00	6.98	6.98	6.97	6.95	6.95	6.93	6.93	6.92	6.91	6.90	6.88	6.88	6.87	6.86	6.84	6.83	6.83	6.81	6.80	6.79	6.79	6.77	6.76	6.75	6.74	6.74	6.72	6.71	6.70	6.69	6.68	6.67	6.66	6.65	6.64	6.63	6.62	6.61	6.60	6.59	6.58	6.57	6.56	6.55	6.54	6.53	6.52	6.51	6.50	6.49	6.48	6.47	6.46	6.45	6.44	6.43	6.42	6.41	6.40	6.39	6.38	6.37	6.36	6.35	6.34	6.33	6.32	6.31	6.30	6.29	6.28	6.27	6.27	6.28	6.28	6.27	6.26	6.25	6.22	6.21	6.22	6.20	6.19	6.17	6.17	6.15	6.14	6.13	6.12	6.10	6.09	6.08	6.06	6.06	6.04	6.02	6.01	6.00	5.99	5.99	5.98	5.95	5.92	5.90	5.87	5.86	5.83	5.81	5.78	5.75	5.74	5.71	5.69	5.66	5.65	5.62	5.59	5.57	5.54	5.53	5.50	5.48	5.46	5.43	5.41	5.39	5.37	5.35	5.33	5.30	5.28	5.26	5.23	5.22	5.19	5.18	5.15	5.12	5.11	5.08	5.07	5.04	5.02	4.97	4.74	4.28	3.84	3.54	3.10	2.63	2.19	1.76	1.45	0.98	0.43	-0.04	-0.13	-0.28	-0.27	-0.25	-0.25	-0.16	0.03	0.12	0.25	0.38	0.52	0.65	0.74	0.87	1.00	1.16	1.34	1.45	1.62	1.78	1.95	2.03	2.05	2.11	2.13	2.17	2.16	2.16	2.16	2.16	2.16	2.16	2.15	2.15	2.15	2.16	2.14	2.15	2.14	2.15	2.13	2.14	2.14	2.14	2.13	2.13	2.13	2.13	2.13	2.13	2.12	2.13	2.12	2.11	2.11	2.12	2.12	2.10	2.11	2.11	2.11	2.09	2.10	2.11	2.10	2.11	2.07	2.01	1.91	1.72	1.49	1.38	1.21	1.09	0.93	0.86	0.77	0.68	0.62	0.49	0.43	0.34	0.26	0.17	-0.23	-0.37	-0.46	-0.61	-0.88	-0.97	-1.27	-1.75	-1.75	-2.01	-2.16	-2.32	-2.57	-2.57	-2.75	-2.77	-2.72	-2.71	-2.73	-2.76	-2.80	-2.82	-2.78	-2.79	-2.79	-2.77	-2.79	-2.75	-2.76	-2.77	-2.79	-2.79	-3.04	-3.10	-3.04	-2.94	-2.94	-2.61	-2.53	-2.53	-2.61	-2.62	-2.62	-2.65	-2.65	-2.66	-2.63	-2.57	-2.48	-2.42	-2.39	-2.41	-2.47	-2.57	-2.59	-2.59	-2.64	-2.63	-2.63	-2.63	-2.69	-2.82	-2.76	-2.73	-2.77	-2.75	-2.68	-2.60	-2.64	-2.61	-2.64	-2.64	-2.60	-2.62	-2.61	-2.62	-2.65	-2.58	-2.58	-2.40	-2.07	-2.11	-2.11	-2.11	-2.09	-2.05	-2.03	-1.99	-1.97	-1.94	-1.99	-2.06	-2.03	-2.01	-2.01	-2.02	-2.08	-2.05	-2.01	-1.98	-1.97	-1.96	-1.96	-2.21	-2.37	-2.34	-2.36	-2.28	-2.33	-2.34	-2.33	-2.30	-2.27	-2.24	-2.18	-2.19
9.72	9.70	9.68	9.67	9.66	9.64	9.62	9.61	9.59	9.57	9.56	9.54	9.53	9.50	9.49	9.48	9.46	9.44	9.42	9.41	9.39	9.38	9.36	9.34	9.33	9.31	9.29	9.28	9.27	9.25	9.22	9.21	9.20	9.18	9.16	9.15	9.13	9.11	9.10	9.08	9.07	9.05	9.04	9.01	9.00	8.99	8.97	8.95	8.94	8.93	8.91	8.89	8.88	8.86	8.85	8.84	8.82	8.81	8.79	8.78	8.77	8.76	8.74	8.73	8.71	8.70	8.69	8.67	8.66	8.64	8.63	8.62	8.60	8.59	8.57	8.56	8.55	8.53	8.52	8.50	8.49	8.48	8.47	8.45	8.44	8.43	8.41	8.40	8.38	8.37	8.35	8.34	8.33	8.31	8.30	8.28	8.27	8.26	8.24	8.23	8.21	8.20	8.19	8.18	8.16	8.15	8.14	8.12	8.11	8.09	8.08	8.06	8.05	8.04	8.03	8.02	8.01	8.00	7.98	7.97	7.95	7.94	7.93	7.91	7.90	7.89	7.88	7.87	7.86	7.85	7.84	7.83	7.81	7.80	7.79	7.78	7.77	7.75	7.74	7.73	7.72	7.70	7.69	7.68	7.67	7.65	7.64	7.63	7.62	7.61	7.60	7.59	7.57	7.56	7.55	7.54	7.53	7.52	7.50	7.49	7.48	7.47	7.45	7.44	7.43	7.42	7.40	7.39	7.38	7.37	7.36	7.35	7.34	7.32	7.31	7.30	7.29	7.28	7.27	7.25	7.24	7.23	7.22	7.21	7.19	7.18	7.17	7.16	7.14	7.13	7.12	7.11	7.10	7.09	7.08	7.07	7.06	7.05	7.03	7.02	7.01	7.00	7.00	6.99	6.98	6.97	6.96	6.95	6.94	6.93	6.91	6.91	6.90	6.88	6.88	6.87	6.86	6.85	6.84	6.82	6.81	6.81	6.79	6.79	6.77	6.77	6.75	6.74	6.73	6.72	6.71	6.70	6.69	6.68	6.67	6.66	6.65	6.64	6.63	6.62	6.61	6.60	6.59	6.58	6.57	6.56	6.55	6.54	6.53	6.52	6.51	6.50	6.49	6.48	6.47	6.46	6.45	6.44	6.43	6.42	6.41	6.40	6.39	6.38	6.37	6.36	6.35	6.34	6.33	6.32	6.31	6.30	6.29	6.29	6.28	6.29	6.29	6.28	6.27	6.26	6.23	6.22	6.23	6.21	6.20	6.19	6.18	6.16	6.15	6.14	6.12	6.11	6.10	6.09	6.08	6.06	6.05	6.04	6.02	6.01	6.00	6.00	5.99	5.98	5.96	5.94	5.91	5.90	5.87	5.84	5.82	5.79	5.78	5.75	5.73	5.70	5.67	5.66	5.63	5.61	5.58	5.57	5.54	5.51	5.49	5.47	5.45	5.42	5.40	5.38	5.35	5.33	5.30	5.29	5.26	5.24	5.22	5.19	5.17	5.15	5.13	5.10	5.08	5.06	5.04	5.02	4.92	4.67	4.23	3.80	3.32	2.89	2.58	2.15	1.67	1.24	0.80	0.46	-0.07	-0.14	-0.16	-0.14	-0.16	-0.12	-0.09	0.04	0.13	0.32	0.40	0.53	0.65	0.77	0.89	0.97	1.15	1.32	1.49	1.66	1.77	1.94	2.02	2.06	2.09	2.13	2.13	2.12	2.13	2.13	2.12	2.11	2.12	2.13	2.11	2.11	2.11	2.11	2.11	2.10	2.11	2.10	2.11	2.09	2.10	2.09	2.10	2.09	2.09	2.09	2.09	2.08	2.08	2.08	2.09	2.08	2.08	2.07	2.08	2.08	2.06	2.07	2.07	2.07	2.05	2.06	2.07	2.07	2.01	1.83	1.66	1.55	1.38	1.15	1.03	0.93	0.86	0.74	0.68	0.58	0.49	0.40	0.30	0.24	0.16	-0.27	-0.41	-0.48	-0.76	-0.88	-0.93	-1.30	-1.53	-1.87	-2.03	-2.03	-2.31	-2.41	-2.69	-2.75	-2.76	-2.72	-2.71	-2.73	-2.72	-2.78	-2.78	-2.78	-2.78	-2.76	-2.77	-2.74	-2.74	-2.74	-2.74	-2.74	-2.85	-3.08	-3.08	-3.10	-2.91	-2.78	-2.55	-2.55	-2.55	-2.60	-2.62	-2.66	-2.67	-2.67	-2.67	-2.63	-2.62	-2.48	-2.43	-2.38	-2.41	-2.45	-2.59	-2.59	-2.60	-2.58	-2.58	-2.60	-2.63	-2.80	-2.75	-2.76	-2.77	-2.77	-2.74	-2.66	-2.62	-2.60	-2.64	-2.64	-2.64	-2.64	-2.65	-2.62	-2.62	-2.63	-2.56	-2.50	-2.13	-2.13	-1.93	-1.95	-2.09	-2.06	-2.06	-2.01	-1.99	-1.97	-1.96	-1.99	-2.03	-2.00	-2.01	-1.97	-1.98	-2.00	-2.04	-2.01	-1.98	-1.97	-1.97	-2.01	-2.24	-2.43	-2.60	-2.36	-2.29	-2.32	-2.35	-2.31	-2.23	-2.25	-2.23	-2.23	-2.17
9.72	9.70	9.68	9.67	9.66	9.64	9.62	9.60	9.59	9.58	9.56	9.54	9.52	9.51	9.49	9.47	9.46	9.44	9.43	9.41	9.39	9.38	9.36	9.34	9.33	9.31	9.30	9.28	9.26	9.24	9.23	9.21	9.20	9.18	9.16	9.15	9.13	9.11	9.10	9.08	9.06	9.04	9.03	9.02	9.00	8.98	8.97	8.96	8.94	8.92	8.91	8.89	8.88	8.86	8.85	8.83	8.82	8.80	8.79	8.78	8.77	8.76	8.74	8.73	8.71	8.70	8.68	8.67	8.66	8.64	8.63	8.61	8.60	8.59	8.57	8.56	8.54	8.53	8.52	8.50	8.49	8.48	8.47	8.45	8.44	8.42	8.41	8.39	8.38	8.37	8.35	8.34	8.32	8.31	8.30	8.28	8.27	8.25	8.24	8.23	8.21	8.20	8.19	8.18	8.16	8.15	8.13	8.12	8.11	8.09	8.08	8.07	8.06	8.04	8.03	8.02	8.01	8.00	7.98	7.97	7.95	7.93	7.92	7.91	7.90	7.88	7.86	7.87	7.86	7.85	7.83	7.82	7.81	7.80	7.79	7.77	7.76	7.75	7.74	7.73	7.72	7.71	7.69	7.68	7.67	7.66	7.65	7.63	7.62	7.61	7.60	7.58	7.57	7.56	7.55	7.54	7.52	7.51	7.50	7.49	7.48	7.47	7.46	7.44	7.43	7.42	7.41	7.40	7.38	7.37	7.36	7.35	7.34	7.32	7.31	7.30	7.29	7.27	7.26	7.25	7.24	7.23	7.21	7.21	7.19	7.18	7.17	7.16	7.15	7.13	7.12	7.11	7.10	7.09	7.08	7.07	7.06	7.05	7.03	7.02	7.01	7.01	6.99	6.98	6.98	6.97	6.96	6.95	6.94	6.93	6.92	6.91	6.90	6.89	6.88	6.87	6.86	6.85	6.84	6.82	6.82	6.80	6.80	6.79	6.77	6.77	6.75	6.75	6.73	6.73	6.71	6.70	6.69	6.68	6.68	6.66	6.66	6.64	6.63	6.62	6.61	6.60	6.59	6.58	6.57	6.56	6.55	6.54	6.53	6.52	6.51	6.50	6.49	6.48	6.47	6.46	6.45	6.44	6.43	6.42	6.41	6.40	6.39	6.38	6.37	6.36	6.35	6.34	6.33	6.32	6.31	6.30	6.29	6.29	6.29	6.30	6.30	6.28	6.27	6.24	6.23	6.24	6.23	6.21	6.20	6.19	6.18	6.16	6.15	6.14	6.13	6.12	6.10	6.09	6.08	6.07	6.04	6.03	6.02	6.01	6.00	5.99	5.99	5.98	5.98	5.95	5.92	5.91	5.88	5.86	5.83	5.82	5.79	5.76	5.74	5.72	5.70	5.67	5.64	5.63	5.60	5.58	5.55	5.54	5.51	5.48	5.46	5.43	5.42	5.39	5.37	5.34	5.31	5.30	5.27	5.25	5.22	5.21	5.18	5.15	5.13	5.10	5.09	5.06	5.04	5.02	4.93	4.45	4.02	3.71	3.28	2.98	2.37	1.93	1.63	1.19	0.72	0.28	-0.02	-0.05	-0.02	0.00	-0.02	0.00	-0.03	0.05	0.18	0.30	0.38	0.54	0.62	0.75	0.83	0.99	1.17	1.29	1.48	1.64	1.81	1.92	2.02	2.07	2.09	2.09	2.09	2.10	2.08	2.08	2.09	2.09	2.08	2.07	2.08	2.09	2.07	2.07	2.07	2.08	2.07	2.06	2.07	2.06	2.07	2.05	2.06	2.05	2.06	2.05	2.05	2.05	2.05	2.04	2.04	2.04	2.05	2.04	2.04	2.03	2.04	2.03	2.03	2.03	2.03	2.03	2.01	2.02	2.00	1.83	1.60	1.49	1.32	1.20	1.03	0.92	0.83	0.74	0.67	0.55	0.49	0.39	0.33	0.21	0.12	-0.31	-0.41	-0.57	-0.72	-0.82	-1.16	-1.30	-1.52	-1.79	-1.90	-2.18	-2.34	-2.49	-2.74	-2.75	-2.76	-2.77	-2.72	-2.72	-2.77	-2.78	-2.78	-2.78	-2.77	-2.79	-2.76	-2.81	-2.78	-2.76	-2.75	-2.75	-2.84	-3.05	-3.08	-3.00	-3.00	-2.77	-2.60	-2.55	-2.55	-2.55	-2.62	-2.65	-2.67	-2.67	-2.68	-2.66	-2.57	-2.48	-2.47	-2.44	-2.45	-2.54	-2.59	-2.58	-2.54	-2.58	-2.57	-2.59	-2.64	-2.74	-2.75	-2.77	-2.75	-2.75	-2.69	-2.62	-2.61	-2.64	-2.64	-2.64	-2.66	-2.66	-2.67	-2.66	-2.62	-2.60	-2.60	-2.44	-2.04	-1.97	-1.92	-1.92	-1.90	-1.93	-2.00	-1.94	-1.94	-1.97	-1.93	-1.99	-2.05	-2.01	-1.99	-1.98	-1.98	-1.98	-1.96	-2.00	-1.98	-1.96	-1.96	-2.02	-2.24	-2.52	-2.52	-2.59	-2.41	-2.32	-2.31	-2.22	-2.21	-2.21	-2.18	-2.18	-2.15
9.71	9.70	9.68	9.67	9.65	9.63	9.62	9.60	9.59	9.57	9.55	9.54	9.52	9.51	9.49	9.47	9.46	9.44	9.43	9.41	9.40	9.37	9.36	9.34	9.33	9.31	9.29	9.28	9.26	9.24	9.23	9.21	9.20	9.18	9.16	9.15	9.13	9.12	9.09	9.08	9.06	9.05	9.03	9.01	9.00	8.98	8.97	8.95	8.94	8.92	8.91	8.90	8.87	8.86	8.85	8.83	8.82	8.80	8.79	8.78	8.77	8.75	8.74	8.73	8.71	8.70	8.68	8.67	8.65	8.64	8.63	8.61	8.60	8.58	8.57	8.56	8.54	8.53	8.51	8.50	8.49	8.48	8.46	8.45	8.44	8.42	8.41	8.39	8.38	8.36	8.35	8.34	8.32	8.31	8.29	8.28	8.27	8.25	8.24	8.22	8.21	8.20	8.19	8.17	8.16	8.15	8.13	8.12	8.10	8.09	8.08	8.06	8.06	8.04	8.03	8.02	8.01	8.00	7.98	7.97	7.95	7.94	7.93	7.91	7.89	7.88	7.87	7.86	7.85	7.85	7.84	7.82	7.81	7.80	7.79	7.78	7.76	7.75	7.74	7.73	7.71	7.70	7.69	7.68	7.67	7.66	7.64	7.63	7.62	7.61	7.60	7.59	7.57	7.56	7.55	7.54	7.53	7.51	7.50	7.49	7.48	7.47	7.45	7.44	7.43	7.42	7.41	7.39	7.38	7.37	7.36	7.35	7.33	7.32	7.31	7.30	7.29	7.28	7.27	7.25	7.24	7.23	7.22	7.20	7.19	7.18	7.17	7.15	7.14	7.13	7.12	7.11	7.10	7.09	7.08	7.07	7.06	7.04	7.03	7.02	7.01	7.00	6.99	6.99	6.98	6.97	6.96	6.96	6.95	6.93	6.92	6.91	6.90	6.89	6.88	6.87	6.86	6.85	6.84	6.83	6.82	6.80	6.80	6.78	6.78	6.77	6.75	6.75	6.73	6.73	6.71	6.71	6.69	6.68	6.67	6.66	6.66	6.64	6.63	6.62	6.61	6.60	6.59	6.58	6.57	6.57	6.55	6.54	6.53	6.52	6.51	6.50	6.49	6.48	6.47	6.46	6.45	6.44	6.43	6.42	6.41	6.40	6.39	6.38	6.37	6.36	6.35	6.34	6.33	6.32	6.31	6.30	6.30	6.31	6.31	6.31	6.30	6.28	6.26	6.24	6.24	6.24	6.22	6.21	6.20	6.19	6.18	6.17	6.15	6.14	6.13	6.11	6.11	6.09	6.07	6.06	6.04	6.03	6.02	6.01	6.00	5.99	5.99	5.98	5.98	5.97	5.95	5.92	5.89	5.88	5.85	5.83	5.80	5.79	5.76	5.73	5.71	5.68	5.67	5.64	5.62	5.59	5.56	5.55	5.52	5.50	5.47	5.46	5.43	5.40	5.38	5.35	5.34	5.31	5.29	5.26	5.23	5.22	5.19	5.17	5.15	5.13	5.10	5.07	5.06	5.03	5.00	4.53	4.24	3.66	3.18	2.90	2.42	2.03	1.55	1.26	0.78	0.30	-0.04	-0.08	-0.09	-0.08	-0.11	-0.12	-0.07	0.04	0.19	0.27	0.40	0.53	0.64	0.77	0.85	0.97	1.08	1.32	1.51	1.63	1.80	1.96	2.03	2.06	2.06	2.05	2.05	2.06	2.05	2.06	2.04	2.04	2.05	2.05	2.04	2.03	2.04	2.04	2.03	2.03	2.03	2.04	2.02	2.02	2.02	2.03	2.03	2.01	2.02	2.01	2.02	2.00	2.01	2.01	2.01	2.00	2.00	2.00	2.00	2.01	2.00	2.00	2.00	2.00	2.01	2.01	2.01	2.00	1.93	1.77	1.65	1.48	1.31	1.14	0.98	0.92	0.80	0.73	0.64	0.55	0.49	0.36	0.30	0.21	0.14	-0.41	-0.46	-0.61	-0.72	-0.96	-1.29	-1.41	-1.73	-1.91	-1.91	-2.27	-2.34	-2.64	-2.66	-2.75	-2.80	-2.77	-2.76	-2.74	-2.75	-2.78	-2.80	-2.80	-2.80	-2.80	-2.78	-2.79	-2.79	-2.76	-2.77	-2.77	-2.99	-2.99	-3.07	-2.93	-2.86	-2.60	-2.60	-2.59	-2.52	-2.56	-2.57	-2.61	-2.65	-2.67	-2.68	-2.68	-2.56	-2.47	-2.46	-2.44	-2.44	-2.52	-2.57	-2.54	-2.54	-2.54	-2.55	-2.59	-2.65	-2.65	-2.69	-2.71	-2.75	-2.69	-2.68	-2.65	-2.65	-2.64	-2.64	-2.66	-2.66	-2.67	-2.66	-2.66	-2.65	-2.62	-2.56	-2.32	-2.32	-2.01	-1.89	-1.89	-1.91	-1.91	-1.90	-1.87	-1.93	-1.94	-1.94	-1.98	-2.03	-2.01	-2.00	-1.98	-1.99	-1.96	-1.96	-1.96	-1.97	-1.96	-1.94	-2.08	-2.27	-2.44	-2.52	-2.49	-2.42	-2.40	-2.28	-2.22	-2.20	-2.19	-2.18	-2.14	-2.14
9.71	9.70	9.68	9.67	9.65	9.63	9.61	9.60	9.59	9.57	9.55	9.53	9.52	9.51	9.48	9.47	9.45	9.44	9.42	9.40	9.39	9.37	9.36	9.34	9.33	9.31	9.29	9.28	9.26	9.25	9.23	9.21	9.19	9.18	9.16	9.15	9.13	9.11	9.10	9.08	9.06	9.05	9.03	9.02	9.00	8.98	8.97	8.95	8.94	8.92	8.91	8.89	8.89	8.86	8.84	8.83	8.82	8.80	8.79	8.78	8.77	8.75	8.74	8.72	8.71	8.69	8.68	8.67	8.65	8.64	8.62	8.61	8.60	8.58	8.57	8.55	8.54	8.53	8.51	8.50	8.49	8.48	8.46	8.45	8.43	8.42	8.41	8.39	8.38	8.36	8.35	8.33	8.32	8.31	8.29	8.28	8.26	8.25	8.24	8.22	8.21	8.20	8.19	8.17	8.16	8.14	8.13	8.12	8.10	8.09	8.08	8.07	8.05	8.05	8.03	8.02	8.01	8.00	7.99	7.97	7.96	7.94	7.92	7.91	7.90	7.88	7.87	7.85	7.84	7.84	7.83	7.82	7.81	7.80	7.78	7.77	7.76	7.75	7.74	7.73	7.72	7.70	7.69	7.68	7.67	7.66	7.64	7.63	7.62	7.61	7.60	7.58	7.57	7.56	7.55	7.53	7.52	7.51	7.50	7.49	7.48	7.47	7.45	7.44	7.43	7.42	7.41	7.40	7.38	7.37	7.36	7.35	7.33	7.32	7.31	7.30	7.28	7.28	7.26	7.25	7.24	7.23	7.22	7.20	7.19	7.18	7.17	7.16	7.15	7.13	7.12	7.11	7.10	7.09	7.08	7.07	7.05	7.04	7.03	7.02	7.01	7.01	6.99	6.99	6.98	6.97	6.96	6.95	6.95	6.94	6.92	6.91	6.90	6.89	6.88	6.87	6.86	6.85	6.84	6.83	6.82	6.81	6.80	6.78	6.78	6.77	6.76	6.74	6.74	6.73	6.71	6.71	6.69	6.69	6.67	6.67	6.65	6.64	6.64	6.62	6.61	6.60	6.60	6.58	6.57	6.56	6.55	6.55	6.53	6.52	6.51	6.50	6.49	6.48	6.47	6.46	6.46	6.44	6.43	6.42	6.41	6.40	6.39	6.38	6.37	6.36	6.35	6.34	6.33	6.32	6.31	6.31	6.31	6.32	6.32	6.31	6.30	6.28	6.26	6.26	6.26	6.24	6.23	6.21	6.20	6.19	6.18	6.16	6.15	6.14	6.13	6.11	6.10	6.09	6.08	6.05	6.04	6.03	6.02	6.01	6.00	6.00	5.99	5.99	5.98	5.97	5.96	5.93	5.92	5.89	5.87	5.84	5.81	5.80	5.77	5.75	5.72	5.71	5.68	5.65	5.63	5.60	5.59	5.56	5.54	5.51	5.48	5.47	5.44	5.42	5.39	5.38	5.35	5.32	5.30	5.28	5.26	5.23	5.20	5.19	5.16	5.14	5.11	5.10	5.07	5.03	5.01	4.52	4.23	3.75	3.47	2.89	2.41	2.12	1.64	1.25	0.80	0.56	-0.02	-0.15	-0.21	-0.20	-0.22	-0.20	-0.11	0.06	0.18	0.26	0.42	0.50	0.63	0.71	0.86	0.99	1.11	1.30	1.42	1.65	1.77	1.95	2.03	2.01	2.02	2.02	2.02	2.00	2.01	2.02	2.01	2.00	2.00	2.01	2.00	2.01	2.00	2.00	2.00	2.00	2.01	2.01	2.01	2.00	2.01	2.01	2.01	2.01	2.01	2.02	2.01	2.02	2.01	2.02	2.02	2.02	2.02	2.02	2.03	2.02	2.03	2.03	2.03	2.03	2.03	2.04	2.04	2.02	1.91	1.76	1.59	1.42	1.31	1.14	0.98	0.89	0.80	0.73	0.61	0.55	0.45	0.39	0.30	0.17	-0.37	-0.41	-0.44	-0.73	-0.82	-1.20	-1.29	-1.58	-1.72	-1.79	-2.16	-2.39	-2.47	-2.59	-2.66	-2.77	-2.85	-2.77	-2.75	-2.74	-2.75	-2.80	-2.81	-2.80	-2.79	-2.79	-2.79	-2.78	-2.76	-2.76	-2.76	-2.74	-2.87	-3.04	-2.98	-2.98	-2.84	-2.70	-2.59	-2.59	-2.59	-2.54	-2.59	-2.61	-2.60	-2.60	-2.67	-2.60	-2.56	-2.58	-2.55	-2.47	-2.47	-2.52	-2.55	-2.55	-2.54	-2.55	-2.51	-2.52	-2.52	-2.65	-2.68	-2.66	-2.66	-2.67	-2.68	-2.68	-2.67	-2.65	-2.65	-2.67	-2.67	-2.66	-2.66	-2.65	-2.63	-2.63	-2.57	-2.53	-2.31	-1.96	-1.96	-1.97	-1.98	-1.95	-1.97	-1.92	-1.99	-1.98	-1.94	-1.94	-2.00	-2.03	-1.97	-1.98	-1.98	-2.01	-2.02	-1.99	-1.99	-2.03	-2.00	-2.08	-2.30	-2.34	-2.42	-2.44	-2.42	-2.37	-2.35	-2.27	-2.19	-2.19	-2.16	-2.19	-2.16
9.71	9.70	9.68	9.66	9.64	9.63	9.61	9.60	9.58	9.56	9.55	9.53	9.52	9.50	9.49	9.47	9.45	9.44	9.42	9.41	9.38	9.37	9.36	9.34	9.33	9.30	9.29	9.28	9.26	9.24	9.22	9.21	9.19	9.18	9.16	9.14	9.13	9.11	9.10	9.08	9.07	9.05	9.03	9.01	9.00	8.99	8.96	8.95	8.94	8.92	8.91	8.89	8.88	8.86	8.84	8.83	8.81	8.81	8.79	8.78	8.76	8.75	8.74	8.72	8.71	8.69	8.68	8.66	8.65	8.64	8.62	8.61	8.59	8.58	8.57	8.56	8.54	8.52	8.51	8.50	8.49	8.47	8.46	8.45	8.43	8.42	8.40	8.39	8.38	8.36	8.35	8.33	8.32	8.30	8.29	8.28	8.27	8.25	8.23	8.22	8.21	8.20	8.18	8.17	8.16	8.14	8.13	8.11	8.10	8.09	8.07	8.07	8.05	8.05	8.03	8.02	8.01	8.00	7.98	7.97	7.96	7.94	7.93	7.91	7.89	7.88	7.87	7.85	7.83	7.82	7.83	7.82	7.81	7.80	7.79	7.77	7.76	7.75	7.74	7.73	7.71	7.70	7.69	7.68	7.67	7.65	7.64	7.63	7.62	7.61	7.60	7.59	7.57	7.56	7.55	7.54	7.53	7.51	7.50	7.49	7.48	7.46	7.45	7.44	7.43	7.42	7.40	7.39	7.38	7.37	7.36	7.34	7.34	7.32	7.31	7.30	7.29	7.28	7.26	7.25	7.24	7.23	7.21	7.20	7.19	7.18	7.17	7.15	7.15	7.13	7.13	7.11	7.10	7.09	7.08	7.05	7.04	7.04	7.03	7.02	7.01	7.00	7.00	6.99	6.98	6.97	6.96	6.95	6.94	6.94	6.93	6.92	6.90	6.89	6.88	6.87	6.86	6.85	6.84	6.84	6.82	6.81	6.80	6.79	6.78	6.77	6.76	6.75	6.74	6.72	6.72	6.71	6.70	6.68	6.67	6.67	6.66	6.65	6.63	6.63	6.62	6.60	6.59	6.58	6.58	6.56	6.55	6.54	6.53	6.53	6.51	6.50	6.49	6.48	6.47	6.46	6.45	6.44	6.44	6.42	6.41	6.40	6.39	6.38	6.37	6.36	6.35	6.34	6.33	6.32	6.32	6.32	6.33	6.33	6.32	6.31	6.28	6.27	6.26	6.27	6.25	6.24	6.23	6.21	6.21	6.19	6.18	6.17	6.15	6.14	6.13	6.12	6.10	6.09	6.06	6.05	6.04	6.03	6.02	6.01	6.00	6.00	5.99	5.98	5.98	5.97	5.97	5.96	5.93	5.90	5.88	5.85	5.84	5.81	5.78	5.76	5.73	5.72	5.69	5.67	5.64	5.62	5.60	5.57	5.55	5.53	5.51	5.48	5.45	5.44	5.41	5.39	5.36	5.35	5.32	5.29	5.27	5.24	5.23	5.20	5.18	5.15	5.12	5.11	5.07	5.05	5.01	4.80	4.33	3.75	3.46	2.98	2.69	2.11	1.82	1.36	0.96	0.48	-0.04	-0.13	-0.27	-0.35	-0.34	-0.25	-0.13	0.04	0.15	0.28	0.36	0.48	0.64	0.72	0.85	0.93	1.13	1.25	1.44	1.63	1.80	1.98	2.01	2.01	2.00	2.02	2.01	2.01	2.01	2.02	2.02	2.01	2.02	2.02	2.03	2.02	2.02	2.03	2.03	2.03	2.02	2.03	2.03	2.04	2.03	2.03	2.04	2.04	2.04	2.03	2.05	2.04	2.04	2.04	2.05	2.05	2.05	2.05	2.04	2.05	2.05	2.05	2.05	2.06	2.06	2.05	2.04	1.99	1.84	1.73	1.58	1.47	1.25	1.08	0.98	0.89	0.79	0.70	0.64	0.55	0.42	0.35	0.26	0.20	-0.34	-0.38	-0.59	-0.73	-0.94	-1.43	-1.50	-1.64	-1.64	-2.00	-2.28	-2.39	-2.59	-2.64	-2.70	-2.79	-2.85	-2.76	-2.76	-2.75	-2.75	-2.80	-2.82	-2.83	-2.82	-2.80	-2.80	-2.80	-2.77	-2.77	-2.72	-2.77	-2.77	-3.01	-2.91	-2.88	-2.83	-2.83	-2.57	-2.60	-2.57	-2.59	-2.59	-2.58	-2.54	-2.60	-2.59	-2.60	-2.61	-2.58	-2.55	-2.50	-2.49	-2.51	-2.56	-2.56	-2.58	-2.57	-2.51	-2.47	-2.48	-2.53	-2.66	-2.66	-2.67	-2.73	-2.70	-2.69	-2.67	-2.65	-2.67	-2.67	-2.66	-2.66	-2.66	-2.66	-2.64	-2.60	-2.55	-2.55	-2.40	-2.05	-1.97	-2.00	-2.00	-2.00	-2.07	-2.06	-2.10	-2.05	-1.92	-1.94	-2.00	-2.04	-1.99	-1.99	-2.01	-2.01	-2.02	-2.06	-2.06	-2.02	-2.02	-2.00	-2.09	-2.34	-2.45	-2.46	-2.42	-2.39	-2.35	-2.20	-2.21	-2.19	-2.20	-2.18	-2.18
9.71	9.69	9.68	9.66	9.65	9.63	9.61	9.60	9.58	9.56	9.55	9.53	9.52	9.50	9.48	9.47	9.45	9.44	9.41	9.40	9.38	9.37	9.35	9.34	9.32	9.30	9.29	9.27	9.26	9.24	9.23	9.21	9.19	9.18	9.16	9.14	9.13	9.11	9.10	9.07	9.06	9.04	9.03	9.01	9.00	8.98	8.97	8.95	8.93	8.92	8.91	8.90	8.87	8.86	8.85	8.83	8.82	8.80	8.79	8.78	8.76	8.75	8.73	8.72	8.71	8.69	8.68	8.66	8.65	8.63	8.62	8.61	8.60	8.58	8.56	8.55	8.54	8.53	8.51	8.50	8.49	8.47	8.46	8.44	8.43	8.42	8.40	8.39	8.37	8.36	8.34	8.33	8.32	8.30	8.29	8.27	8.26	8.25	8.24	8.22	8.21	8.20	8.18	8.17	8.15	8.14	8.13	8.11	8.10	8.09	8.08	8.07	8.06	8.04	8.03	8.02	8.01	8.00	7.99	7.98	7.96	7.94	7.93	7.91	7.90	7.88	7.87	7.85	7.84	7.82	7.80	7.81	7.81	7.80	7.79	7.77	7.76	7.75	7.74	7.73	7.72	7.70	7.69	7.68	7.67	7.66	7.64	7.63	7.62	7.61	7.59	7.58	7.57	7.56	7.54	7.54	7.52	7.51	7.50	7.49	7.48	7.46	7.45	7.44	7.43	7.42	7.41	7.39	7.38	7.37	7.36	7.34	7.33	7.32	7.31	7.30	7.29	7.27	7.26	7.25	7.24	7.23	7.21	7.20	7.19	7.18	7.17	7.16	7.14	7.13	7.12	7.11	7.11	7.09	7.08	7.05	7.05	7.04	7.03	7.02	7.01	7.01	7.00	6.99	6.98	6.97	6.96	6.95	6.94	6.93	6.93	6.93	6.90	6.89	6.88	6.87	6.86	6.85	6.84	6.83	6.83	6.82	6.80	6.79	6.78	6.77	6.76	6.75	6.74	6.73	6.72	6.70	6.70	6.69	6.68	6.66	6.65	6.65	6.64	6.63	6.61	6.61	6.60	6.58	6.57	6.56	6.56	6.55	6.54	6.52	6.51	6.51	6.49	6.48	6.47	6.47	6.45	6.44	6.43	6.42	6.42	6.40	6.39	6.38	6.37	6.36	6.35	6.34	6.33	6.33	6.33	6.34	6.34	6.33	6.32	6.30	6.28	6.27	6.28	6.27	6.25	6.24	6.23	6.22	6.20	6.19	6.18	6.16	6.15	6.14	6.13	6.11	6.09	6.07	6.06	6.05	6.04	6.03	6.02	6.01	6.00	5.99	5.99	5.98	5.98	5.97	5.97	5.96	5.94	5.92	5.90	5.87	5.85	5.82	5.81	5.78	5.76	5.73	5.70	5.69	5.66	5.64	5.61	5.60	5.57	5.54	5.52	5.49	5.48	5.45	5.43	5.40	5.37	5.36	5.33	5.31	5.28	5.27	5.24	5.21	5.19	5.16	5.15	5.12	5.10	5.06	5.01	4.80	4.32	4.03	3.45	3.16	2.68	2.20	1.92	1.49	1.22	0.57	-0.02	-0.15	-0.29	-0.38	-0.41	-0.29	-0.10	0.06	0.14	0.30	0.37	0.50	0.58	0.71	0.87	0.95	1.11	1.23	1.47	1.59	1.78	1.94	2.01	2.03	2.04	2.03	2.05	2.04	2.04	2.04	2.04	2.05	2.04	2.05	2.04	2.05	2.05	2.05	2.05	2.06	2.06	2.05	2.05	2.05	2.06	2.06	2.06	2.06	2.06	2.06	2.06	2.06	2.07	2.07	2.07	2.07	2.07	2.07	2.07	2.07	2.07	2.08	2.08	2.07	2.08	2.06	2.03	1.97	1.82	1.66	1.50	1.40	1.25	1.08	0.95	0.86	0.79	0.70	0.60	0.51	0.45	0.35	0.23	-0.32	-0.34	-0.36	-0.69	-0.81	-1.22	-1.43	-1.48	-1.81	-1.92	-2.17	-2.17	-2.38	-2.51	-2.64	-2.77	-2.77	-2.81	-2.74	-2.76	-2.72	-2.74	-2.82	-2.83	-2.82	-2.82	-2.80	-2.80	-2.78	-2.75	-2.75	-2.73	-2.72	-2.85	-2.85	-2.85	-2.75	-2.71	-2.66	-2.56	-2.54	-2.60	-2.58	-2.59	-2.55	-2.54	-2.54	-2.55	-2.60	-2.59	-2.57	-2.56	-2.48	-2.48	-2.52	-2.56	-2.58	-2.64	-2.64	-2.59	-2.53	-2.48	-2.63	-2.68	-2.70	-2.71	-2.73	-2.70	-2.69	-2.67	-2.65	-2.64	-2.64	-2.65	-2.66	-2.66	-2.65	-2.65	-2.58	-2.55	-2.51	-2.19	-2.19	-2.01	-2.00	-2.00	-1.96	-2.08	-2.10	-2.08	-1.99	-1.97	-1.91	-2.01	-2.05	-1.99	-2.00	-2.01	-2.01	-2.05	-2.05	-2.05	-2.00	-2.01	-1.94	-2.08	-2.26	-2.43	-2.46	-2.41	-2.36	-2.33	-2.21	-2.21	-2.19	-2.18	-2.19	-2.13
9.71	9.69	9.68	9.65	9.64	9.63	9.61	9.59	9.57	9.56	9.55	9.53	9.51	9.50	9.48	9.46	9.45	9.43	9.42	9.40	9.38	9.37	9.35	9.34	9.32	9.30	9.29	9.28	9.25	9.23	9.22	9.21	9.19	9.17	9.16	9.14	9.13	9.11	9.09	9.08	9.06	9.05	9.03	9.01	9.00	8.98	8.97	8.95	8.94	8.92	8.90	8.89	8.88	8.86	8.85	8.83	8.82	8.80	8.79	8.77	8.76	8.75	8.73	8.72	8.70	8.69	8.68	8.66	8.65	8.63	8.62	8.60	8.59	8.58	8.57	8.55	8.53	8.53	8.51	8.50	8.48	8.47	8.46	8.44	8.43	8.41	8.40	8.39	8.37	8.36	8.34	8.33	8.31	8.30	8.29	8.28	8.26	8.24	8.24	8.22	8.21	8.19	8.18	8.17	8.15	8.14	8.12	8.11	8.10	8.09	8.08	8.07	8.06	8.04	8.03	8.02	8.01	8.00	7.98	7.97	7.96	7.95	7.93	7.91	7.90	7.88	7.87	7.85	7.84	7.83	7.81	7.79	7.80	7.80	7.79	7.77	7.76	7.75	7.74	7.72	7.71	7.70	7.69	7.68	7.66	7.65	7.64	7.63	7.62	7.61	7.60	7.58	7.57	7.56	7.55	7.54	7.52	7.51	7.50	7.49	7.47	7.46	7.45	7.44	7.43	7.41	7.41	7.39	7.38	7.37	7.36	7.35	7.33	7.32	7.31	7.30	7.29	7.27	7.26	7.25	7.24	7.23	7.21	7.20	7.19	7.18	7.16	7.16	7.15	7.14	7.12	7.11	7.10	7.09	7.06	7.05	7.05	7.04	7.03	7.02	7.01	7.01	7.00	6.99	6.98	6.97	6.96	6.95	6.94	6.93	6.93	6.93	6.91	6.90	6.88	6.87	6.86	6.85	6.84	6.83	6.82	6.82	6.81	6.79	6.78	6.77	6.76	6.75	6.74	6.73	6.72	6.71	6.70	6.68	6.68	6.67	6.66	6.64	6.64	6.63	6.62	6.61	6.59	6.59	6.58	6.57	6.55	6.54	6.54	6.53	6.52	6.50	6.50	6.49	6.47	6.46	6.45	6.45	6.43	6.43	6.41	6.40	6.40	6.38	6.37	6.36	6.35	6.34	6.34	6.34	6.34	6.36	6.35	6.33	6.33	6.29	6.28	6.29	6.28	6.27	6.25	6.24	6.23	6.22	6.20	6.19	6.18	6.16	6.15	6.14	6.13	6.11	6.10	6.07	6.06	6.05	6.04	6.03	6.02	6.01	6.00	5.99	5.99	5.98	5.98	5.97	5.97	5.96	5.95	5.94	5.91	5.89	5.86	5.85	5.82	5.79	5.77	5.74	5.73	5.70	5.68	5.65	5.62	5.61	5.58	5.56	5.53	5.52	5.49	5.46	5.44	5.41	5.40	5.37	5.34	5.32	5.29	5.28	5.25	5.23	5.20	5.18	5.16	5.13	5.10	5.06	5.03	4.89	4.31	4.02	3.54	3.25	2.68	2.45	2.05	1.65	1.14	0.49	0.08	-0.13	-0.22	-0.40	-0.44	-0.31	-0.12	0.04	0.16	0.24	0.36	0.52	0.60	0.72	0.80	0.93	1.06	1.25	1.44	1.56	1.77	1.86	2.00	2.02	2.06	2.06	2.06	2.06	2.07	2.07	2.07	2.06	2.06	2.07	2.07	2.07	2.07	2.08	2.08	2.07	2.07	2.08	2.08	2.08	2.07	2.09	2.08	2.09	2.08	2.08	2.09	2.09	2.09	2.08	2.10	2.09	2.10	2.09	2.10	2.10	2.10	2.10	2.10	2.12	2.10	2.06	2.03	1.90	1.79	1.64	1.53	1.32	1.17	1.06	0.95	0.85	0.76	0.69	0.60	0.47	0.41	0.32	0.25	0.16	-0.32	-0.56	-0.69	-0.94	-1.11	-1.27	-1.70	-1.70	-1.95	-2.16	-2.28	-2.40	-2.51	-2.62	-2.74	-2.77	-2.81	-2.72	-2.75	-2.70	-2.74	-2.78	-2.81	-2.82	-2.81	-2.78	-2.78	-2.76	-2.78	-2.74	-2.70	-2.70	-2.68	-2.73	-2.66	-2.68	-2.68	-2.59	-2.54	-2.56	-2.55	-2.59	-2.53	-2.49	-2.50	-2.50	-2.51	-2.54	-2.53	-2.57	-2.49	-2.53	-2.51	-2.52	-2.52	-2.62	-2.71	-2.66	-2.61	-2.63	-2.59	-2.67	-2.68	-2.73	-2.73	-2.71	-2.72	-2.69	-2.68	-2.63	-2.62	-2.64	-2.63	-2.63	-2.62	-2.64	-2.63	-2.61	-2.61	-2.57	-2.38	-2.07	-2.07	-2.02	-1.99	-2.00	-2.11	-2.05	-2.08	-2.07	-1.93	-1.94	-2.05	-2.04	-2.00	-2.00	-2.00	-2.03	-2.05	-2.06	-2.02	-2.02	-1.99	-1.95	-2.08	-2.41	-2.41	-2.42	-2.34	-2.36	-2.25	-2.22	-2.23	-2.19	-2.18	-2.18	-2.16
9.70	9.69	9.67	9.66	9.64	9.62	9.61	9.59	9.58	9.56	9.54	9.53	9.51	9.49	9.48	9.46	9.45	9.43	9.41	9.40	9.38	9.36	9.35	9.33	9.32	9.30	9.28	9.27	9.25	9.24	9.22	9.20	9.19	9.17	9.15	9.14	9.13	9.11	9.09	9.07	9.06	9.05	9.03	9.01	9.00	8.98	8.97	8.95	8.94	8.92	8.91	8.89	8.87	8.86	8.84	8.84	8.81	8.80	8.79	8.77	8.76	8.74	8.73	8.72	8.70	8.69	8.67	8.66	8.64	8.63	8.62	8.61	8.59	8.57	8.56	8.55	8.54	8.52	8.51	8.50	8.48	8.47	8.45	8.44	8.43	8.41	8.40	8.38	8.37	8.36	8.34	8.33	8.32	8.30	8.28	8.27	8.26	8.25	8.23	8.22	8.21	8.19	8.18	8.16	8.15	8.14	8.12	8.11	8.10	8.09	8.08	8.06	8.05	8.04	8.03	8.02	8.01	8.00	7.99	7.98	7.96	7.94	7.93	7.92	7.90	7.89	7.87	7.85	7.84	7.82	7.81	7.79	7.78	7.77	7.78	7.77	7.76	7.75	7.74	7.73	7.72	7.70	7.69	7.68	7.67	7.65	7.64	7.63	7.62	7.61	7.59	7.58	7.57	7.56	7.55	7.53	7.52	7.51	7.50	7.49	7.48	7.47	7.45	7.44	7.43	7.42	7.40	7.39	7.38	7.37	7.36	7.34	7.33	7.32	7.31	7.30	7.28	7.27	7.26	7.25	7.24	7.22	7.22	7.20	7.19	7.18	7.17	7.16	7.14	7.14	7.12	7.12	7.10	7.07	7.06	7.05	7.05	7.04	7.03	7.02	7.02	7.01	7.00	6.99	6.98	6.97	6.96	6.95	6.94	6.93	6.92	6.91	6.92	6.91	6.90	6.87	6.86	6.85	6.84	6.83	6.82	6.81	6.81	6.79	6.78	6.77	6.76	6.75	6.74	6.73	6.72	6.71	6.70	6.69	6.68	6.67	6.66	6.65	6.64	6.63	6.62	6.61	6.60	6.59	6.57	6.57	6.56	6.55	6.53	6.52	6.52	6.51	6.50	6.48	6.48	6.47	6.45	6.44	6.43	6.43	6.41	6.41	6.39	6.38	6.37	6.36	6.35	6.35	6.35	6.36	6.36	6.36	6.35	6.33	6.30	6.29	6.29	6.29	6.28	6.26	6.25	6.24	6.23	6.22	6.20	6.19	6.18	6.17	6.15	6.14	6.12	6.09	6.08	6.07	6.06	6.05	6.04	6.03	6.02	6.01	6.00	6.00	5.99	5.98	5.98	5.97	5.97	5.96	5.96	5.95	5.92	5.90	5.87	5.86	5.83	5.81	5.78	5.75	5.74	5.71	5.69	5.66	5.65	5.62	5.59	5.57	5.54	5.53	5.50	5.48	5.45	5.43	5.41	5.38	5.37	5.34	5.32	5.29	5.26	5.25	5.22	5.21	5.17	5.14	5.10	5.05	5.03	4.88	4.59	4.11	3.72	3.25	2.82	2.61	2.18	1.87	1.22	0.82	0.01	-0.14	-0.24	-0.38	-0.36	-0.28	-0.16	0.02	0.15	0.26	0.38	0.46	0.58	0.69	0.82	0.95	1.04	1.28	1.40	1.58	1.73	1.82	2.00	2.02	2.05	2.07	2.09	2.08	2.09	2.08	2.10	2.09	2.09	2.09	2.10	2.10	2.09	2.10	2.09	2.11	2.10	2.10	2.10	2.11	2.11	2.10	2.11	2.11	2.11	2.11	2.11	2.12	2.12	2.12	2.11	2.11	2.12	2.12	2.12	2.12	2.13	2.12	2.13	2.13	2.08	2.05	2.01	1.93	1.72	1.56	1.46	1.31	1.20	1.01	0.94	0.84	0.75	0.65	0.56	0.49	0.40	0.30	0.21	-0.28	-0.32	-0.43	-0.80	-0.97	-1.11	-1.30	-1.64	-1.80	-2.07	-2.07	-2.19	-2.41	-2.51	-2.69	-2.76	-2.77	-2.74	-2.72	-2.77	-2.67	-2.74	-2.79	-2.81	-2.79	-2.78	-2.78	-2.76	-2.75	-2.75	-2.73	-2.72	-2.69	-2.66	-2.66	-2.65	-2.65	-2.61	-2.58	-2.55	-2.54	-2.51	-2.52	-2.51	-2.48	-2.50	-2.50	-2.50	-2.49	-2.46	-2.45	-2.52	-2.52	-2.55	-2.63	-2.60	-2.72	-2.72	-2.73	-2.68	-2.63	-2.67	-2.66	-2.68	-2.68	-2.73	-2.66	-2.71	-2.67	-2.67	-2.63	-2.63	-2.60	-2.62	-2.61	-2.61	-2.61	-2.63	-2.66	-2.68	-2.44	-2.44	-2.13	-2.07	-2.04	-2.05	-2.01	-1.96	-2.04	-2.08	-2.01	-2.00	-1.97	-2.11	-2.04	-2.04	-2.01	-2.02	-2.04	-2.04	-2.04	-2.03	-2.01	-1.93	-1.93	-2.03	-2.28	-2.41	-2.33	-2.30	-2.29	-2.18	-2.22	-2.21	-2.18	-2.19	-2.16	-2.16
9.71	9.69	9.67	9.65	9.64	9.63	9.60	9.59	9.57	9.56	9.54	9.52	9.51	9.49	9.48	9.46	9.44	9.43	9.41	9.40	9.38	9.36	9.35	9.33	9.31	9.30	9.29	9.27	9.25	9.23	9.22	9.21	9.18	9.17	9.15	9.14	9.12	9.10	9.09	9.07	9.06	9.04	9.02	9.01	9.00	8.98	8.96	8.95	8.94	8.92	8.90	8.89	8.88	8.86	8.85	8.83	8.81	8.80	8.78	8.77	8.76	8.75	8.73	8.71	8.70	8.69	8.67	8.66	8.65	8.63	8.61	8.60	8.59	8.58	8.56	8.54	8.54	8.52	8.51	8.49	8.48	8.47	8.45	8.44	8.42	8.41	8.40	8.38	8.37	8.35	8.34	8.33	8.31	8.30	8.29	8.27	8.25	8.25	8.23	8.22	8.20	8.19	8.18	8.16	8.15	8.13	8.13	8.11	8.11	8.09	8.08	8.06	8.05	8.04	8.03	8.03	8.01	8.00	7.99	7.97	7.96	7.94	7.93	7.92	7.90	7.89	7.87	7.86	7.84	7.83	7.81	7.80	7.78	7.76	7.75	7.76	7.76	7.75	7.73	7.72	7.71	7.70	7.69	7.67	7.67	7.65	7.64	7.63	7.62	7.61	7.59	7.58	7.57	7.56	7.55	7.53	7.52	7.51	7.50	7.49	7.47	7.46	7.45	7.44	7.42	7.42	7.40	7.39	7.38	7.37	7.36	7.34	7.33	7.32	7.31	7.30	7.29	7.27	7.26	7.25	7.24	7.22	7.21	7.20	7.19	7.18	7.17	7.16	7.15	7.14	7.13	7.11	7.08	7.07	7.06	7.06	7.05	7.04	7.03	7.02	7.02	7.01	7.00	6.99	6.98	6.97	6.96	6.95	6.94	6.93	6.92	6.91	6.91	6.91	6.90	6.88	6.87	6.85	6.84	6.83	6.82	6.81	6.80	6.80	6.79	6.77	6.76	6.75	6.74	6.73	6.72	6.71	6.70	6.69	6.68	6.67	6.66	6.65	6.64	6.63	6.62	6.61	6.60	6.59	6.58	6.57	6.55	6.55	6.54	6.53	6.52	6.51	6.50	6.49	6.48	6.46	6.46	6.45	6.44	6.42	6.41	6.41	6.39	6.39	6.37	6.37	6.36	6.36	6.36	6.37	6.37	6.36	6.35	6.32	6.30	6.31	6.31	6.29	6.28	6.27	6.25	6.24	6.23	6.21	6.20	6.19	6.18	6.17	6.14	6.13	6.12	6.09	6.08	6.07	6.06	6.05	6.04	6.03	6.02	6.01	6.00	6.00	5.99	5.98	5.98	5.97	5.97	5.96	5.96	5.95	5.94	5.91	5.90	5.87	5.84	5.82	5.80	5.78	5.75	5.73	5.71	5.68	5.66	5.63	5.62	5.59	5.57	5.54	5.51	5.50	5.47	5.45	5.42	5.41	5.38	5.35	5.33	5.30	5.29	5.26	5.25	5.22	5.18	5.14	5.10	5.08	5.04	5.01	4.58	4.11	3.82	3.38	3.14	2.74	2.34	1.95	1.14	0.74	0.09	-0.07	-0.25	-0.26	-0.24	-0.25	-0.13	0.04	0.12	0.24	0.37	0.48	0.60	0.68	0.81	0.92	1.07	1.26	1.38	1.56	1.65	1.81	1.90	2.02	2.05	2.07	2.09	2.11	2.11	2.12	2.11	2.11	2.12	2.12	2.12	2.12	2.13	2.12	2.12	2.12	2.13	2.13	2.13	2.13	2.12	2.13	2.13	2.13	2.13	2.14	2.14	2.14	2.13	2.14	2.14	2.14	2.14	2.14	2.15	2.14	2.15	2.14	2.15	2.11	2.07	2.04	1.96	1.85	1.70	1.60	1.38	1.24	1.15	1.00	0.94	0.81	0.74	0.65	0.55	0.45	0.36	0.29	0.20	-0.25	-0.47	-0.60	-0.64	-1.01	-1.15	-1.47	-1.47	-1.82	-1.99	-2.10	-2.34	-2.34	-2.56	-2.71	-2.76	-2.77	-2.79	-2.71	-2.64	-2.67	-2.66	-2.82	-2.79	-2.77	-2.78	-2.77	-2.76	-2.75	-2.74	-2.75	-2.75	-2.70	-2.68	-2.66	-2.68	-2.65	-2.63	-2.57	-2.56	-2.55	-2.54	-2.53	-2.58	-2.49	-2.50	-2.50	-2.50	-2.49	-2.49	-2.53	-2.54	-2.54	-2.61	-2.61	-2.70	-2.78	-2.79	-2.74	-2.74	-2.73	-2.74	-2.66	-2.68	-2.67	-2.67	-2.73	-2.71	-2.70	-2.69	-2.68	-2.62	-2.60	-2.59	-2.57	-2.59	-2.62	-2.70	-2.70	-2.57	-2.53	-2.19	-2.18	-2.08	-2.06	-2.02	-1.99	-1.98	-1.95	-2.08	-1.95	-1.94	-2.08	-2.14	-2.11	-2.03	-2.03	-2.02	-2.03	-2.03	-2.03	-2.03	-1.99	-1.90	-1.90	-2.13	-2.13	-2.35	-2.30	-2.30	-2.28	-2.23	-2.17	-2.19	-2.18	-2.20	-2.19	-2.20
9.70	9.68	9.67	9.65	9.63	9.62	9.60	9.59	9.57	9.56	9.54	9.52	9.50	9.49	9.48	9.46	9.45	9.42	9.41	9.40	9.38	9.36	9.34	9.33	9.31	9.29	9.28	9.26	9.25	9.23	9.22	9.20	9.18	9.17	9.15	9.14	9.12	9.11	9.08	9.07	9.06	9.04	9.03	9.01	9.00	8.99	8.96	8.95	8.93	8.92	8.91	8.88	8.87	8.86	8.85	8.83	8.82	8.80	8.78	8.77	8.75	8.74	8.73	8.72	8.70	8.68	8.67	8.66	8.64	8.63	8.62	8.60	8.58	8.57	8.56	8.55	8.53	8.52	8.51	8.49	8.48	8.46	8.45	8.44	8.43	8.41	8.39	8.38	8.37	8.35	8.34	8.33	8.31	8.29	8.28	8.27	8.26	8.25	8.23	8.22	8.20	8.19	8.17	8.16	8.15	8.14	8.12	8.11	8.10	8.09	8.07	8.06	8.05	8.04	8.03	8.02	8.01	8.01	7.99	7.97	7.96	7.95	7.93	7.91	7.90	7.89	7.87	7.85	7.84	7.83	7.81	7.80	7.78	7.76	7.75	7.75	7.74	7.75	7.74	7.73	7.71	7.70	7.69	7.68	7.66	7.65	7.64	7.63	7.62	7.60	7.59	7.58	7.57	7.56	7.54	7.54	7.52	7.51	7.50	7.49	7.48	7.46	7.45	7.44	7.43	7.42	7.40	7.39	7.38	7.37	7.35	7.34	7.33	7.32	7.31	7.29	7.29	7.27	7.26	7.25	7.24	7.22	7.21	7.20	7.19	7.18	7.17	7.15	7.15	7.14	7.13	7.09	7.08	7.07	7.06	7.06	7.05	7.04	7.03	7.02	7.01	7.01	7.00	6.99	6.98	6.97	6.96	6.95	6.94	6.93	6.92	6.92	6.91	6.90	6.90	6.89	6.88	6.85	6.84	6.83	6.82	6.81	6.80	6.79	6.79	6.78	6.76	6.75	6.74	6.73	6.72	6.71	6.70	6.69	6.68	6.67	6.66	6.65	6.64	6.63	6.62	6.61	6.60	6.59	6.58	6.57	6.56	6.55	6.54	6.53	6.52	6.51	6.50	6.49	6.48	6.47	6.46	6.44	6.44	6.43	6.42	6.41	6.39	6.39	6.37	6.37	6.37	6.37	6.38	6.38	6.37	6.36	6.33	6.31	6.31	6.32	6.31	6.29	6.28	6.27	6.25	6.24	6.23	6.21	6.21	6.19	6.18	6.16	6.15	6.11	6.10	6.09	6.08	6.07	6.06	6.05	6.04	6.03	6.02	6.01	6.01	6.00	5.99	5.98	5.98	5.97	5.97	5.96	5.96	5.95	5.95	5.93	5.91	5.88	5.87	5.84	5.82	5.79	5.76	5.75	5.72	5.70	5.67	5.66	5.63	5.60	5.58	5.55	5.54	5.51	5.48	5.46	5.43	5.42	5.39	5.37	5.34	5.31	5.30	5.27	5.26	5.22	5.19	5.15	5.11	5.08	5.04	5.01	4.68	4.31	3.91	3.51	3.30	2.87	2.52	1.87	1.47	0.82	0.01	-0.09	-0.18	-0.16	-0.13	-0.11	-0.12	0.03	0.14	0.26	0.34	0.46	0.57	0.70	0.82	0.90	1.04	1.21	1.37	1.46	1.62	1.80	1.89	2.01	2.03	2.07	2.09	2.12	2.13	2.14	2.14	2.14	2.14	2.14	2.15	2.14	2.14	2.14	2.15	2.15	2.14	2.15	2.15	2.16	2.15	2.15	2.15	2.16	2.16	2.15	2.16	2.16	2.17	2.16	2.16	2.17	2.17	2.17	2.16	2.18	2.20	2.18	2.15	2.11	2.06	2.03	1.99	1.84	1.63	1.52	1.38	1.28	1.09	1.00	0.90	0.81	0.71	0.61	0.55	0.45	0.39	0.26	-0.22	-0.33	-0.41	-0.51	-0.85	-0.85	-1.18	-1.45	-1.67	-1.85	-1.85	-2.20	-2.45	-2.50	-2.69	-2.69	-2.72	-2.80	-2.79	-2.88	-2.94	-2.65	-2.80	-2.82	-2.85	-2.90	-2.84	-2.79	-2.79	-2.79	-2.87	-2.78	-2.74	-2.71	-2.71	-2.75	-2.68	-2.69	-2.78	-2.64	-2.58	-2.55	-2.57	-2.65	-2.61	-2.59	-2.57	-2.50	-2.60	-2.53	-2.60	-2.54	-2.54	-2.62	-2.68	-2.67	-2.72	-2.72	-2.79	-2.80	-2.76	-2.80	-2.80	-2.74	-2.65	-2.67	-2.65	-2.71	-2.74	-2.70	-2.69	-2.71	-2.62	-2.60	-2.57	-2.57	-2.57	-2.62	-2.65	-2.69	-2.54	-2.47	-2.29	-2.18	-2.07	-2.18	-2.09	-2.01	-1.96	-1.99	-2.03	-2.05	-1.94	-2.10	-2.10	-2.15	-2.09	-1.97	-2.03	-2.03	-2.02	-2.02	-2.01	-1.93	-1.93	-1.97	-2.11	-2.25	-2.34	-2.32	-2.29	-2.28	-2.23	-2.22	-2.24	-2.22	-2.18	-2.19	-2.19
9.70	9.68	9.66	9.65	9.64	9.62	9.60	9.58	9.57	9.56	9.53	9.52	9.50	9.49	9.47	9.45	9.44	9.42	9.41	9.39	9.38	9.36	9.34	9.33	9.31	9.30	9.28	9.26	9.25	9.23	9.22	9.19	9.18	9.16	9.15	9.13	9.11	9.10	9.08	9.07	9.05	9.04	9.03	9.02	9.00	8.98	8.97	8.95	8.93	8.92	8.90	8.89	8.87	8.86	8.84	8.83	8.82	8.80	8.79	8.77	8.76	8.74	8.72	8.71	8.70	8.68	8.67	8.66	8.64	8.63	8.61	8.60	8.59	8.57	8.56	8.55	8.53	8.52	8.50	8.49	8.48	8.47	8.45	8.43	8.42	8.41	8.40	8.38	8.37	8.35	8.34	8.32	8.31	8.30	8.28	8.26	8.26	8.24	8.23	8.21	8.20	8.19	8.17	8.16	8.15	8.14	8.13	8.12	8.10	8.08	8.07	8.06	8.05	8.04	8.04	8.03	8.01	8.01	7.99	7.98	7.96	7.95	7.93	7.92	7.91	7.88	7.87	7.86	7.85	7.83	7.81	7.80	7.78	7.77	7.75	7.74	7.73	7.74	7.73	7.72	7.71	7.70	7.69	7.68	7.66	7.65	7.64	7.63	7.62	7.61	7.60	7.58	7.57	7.56	7.55	7.53	7.52	7.51	7.50	7.49	7.47	7.46	7.45	7.43	7.43	7.41	7.40	7.39	7.38	7.37	7.35	7.35	7.33	7.32	7.31	7.30	7.28	7.27	7.26	7.25	7.23	7.22	7.21	7.20	7.19	7.18	7.17	7.16	7.15	7.14	7.12	7.09	7.08	7.07	7.06	7.05	7.05	7.04	7.03	7.02	7.02	7.01	7.00	6.99	6.98	6.97	6.96	6.95	6.94	6.93	6.92	6.91	6.90	6.90	6.89	6.89	6.89	6.88	6.85	6.83	6.82	6.81	6.80	6.79	6.78	6.78	6.77	6.76	6.74	6.73	6.72	6.71	6.70	6.69	6.68	6.67	6.66	6.65	6.64	6.63	6.62	6.61	6.60	6.59	6.58	6.57	6.56	6.55	6.54	6.53	6.52	6.51	6.50	6.49	6.48	6.47	6.46	6.45	6.44	6.42	6.42	6.40	6.40	6.39	6.38	6.38	6.38	6.39	6.39	6.39	6.37	6.34	6.33	6.32	6.33	6.32	6.30	6.29	6.28	6.27	6.25	6.24	6.23	6.22	6.20	6.19	6.17	6.15	6.14	6.11	6.11	6.09	6.08	6.07	6.06	6.05	6.04	6.03	6.03	6.02	6.01	6.00	5.99	5.99	5.98	5.97	5.97	5.96	5.95	5.95	5.94	5.94	5.92	5.89	5.88	5.85	5.83	5.80	5.79	5.76	5.73	5.71	5.68	5.67	5.64	5.62	5.59	5.56	5.55	5.52	5.50	5.47	5.46	5.43	5.40	5.38	5.36	5.34	5.32	5.30	5.27	5.22	5.19	5.15	5.13	5.09	5.06	5.01	4.68	4.47	4.07	3.83	3.43	3.22	2.60	1.79	1.39	0.74	0.34	-0.05	-0.03	-0.04	-0.05	-0.03	0.00	0.00	0.13	0.20	0.36	0.48	0.56	0.69	0.80	0.92	1.07	1.17	1.33	1.45	1.60	1.69	1.85	2.01	2.03	2.06	2.08	2.12	2.13	2.16	2.16	2.17	2.16	2.17	2.16	2.17	2.17	2.17	2.17	2.17	2.18	2.17	2.18	2.17	2.18	2.18	2.18	2.18	2.19	2.19	2.18	2.18	2.18	2.19	2.19	2.19	2.19	2.19	2.19	2.21	2.21	2.17	2.13	2.10	2.06	2.01	1.91	1.76	1.66	1.52	1.37	1.23	1.09	1.00	0.87	0.80	0.71	0.64	0.51	0.42	0.35	0.26	-0.28	-0.36	-0.45	-0.65	-0.73	-1.08	-1.37	-1.37	-1.49	-1.81	-2.06	-2.37	-2.37	-2.62	-2.71	-2.71	-2.76	-2.76	-2.84	-2.91	-2.94	-2.95	-2.91	-2.92	-2.90	-2.90	-2.90	-2.90	-2.88	-2.88	-2.87	-2.87	-2.85	-2.77	-2.80	-2.85	-2.85	-2.90	-2.78	-2.65	-2.67	-2.58	-2.63	-2.66	-2.63	-2.75	-2.63	-2.68	-2.71	-2.71	-2.68	-2.61	-2.59	-2.69	-2.69	-2.67	-2.69	-2.71	-2.77	-2.77	-2.71	-2.69	-2.75	-2.73	-2.72	-2.67	-2.65	-2.71	-2.72	-2.69	-2.69	-2.65	-2.62	-2.55	-2.56	-2.56	-2.59	-2.58	-2.58	-2.53	-2.54	-2.45	-2.29	-2.16	-2.19	-2.18	-2.06	-2.05	-1.97	-2.04	-1.98	-1.99	-2.00	-1.97	-2.19	-2.09	-2.09	-2.05	-2.03	-2.03	-2.02	-2.02	-1.99	-2.04	-1.97	-2.02	-2.02	-2.28	-2.35	-2.32	-2.29	-2.29	-2.27	-2.21	-2.24	-2.22	-2.24	-2.19	-2.23
9.69	9.68	9.66	9.64	9.63	9.61	9.60	9.58	9.57	9.55	9.53	9.52	9.50	9.49	9.47	9.46	9.43	9.42	9.41	9.39	9.37	9.35	9.34	9.33	9.31	9.29	9.27	9.26	9.25	9.23	9.21	9.19	9.18	9.16	9.15	9.13	9.12	9.10	9.08	9.07	9.06	9.05	9.03	9.02	9.01	8.99	8.97	8.95	8.94	8.92	8.90	8.89	8.87	8.86	8.84	8.83	8.81	8.80	8.79	8.76	8.75	8.74	8.73	8.71	8.70	8.68	8.67	8.65	8.64	8.63	8.61	8.59	8.58	8.57	8.56	8.55	8.53	8.52	8.50	8.49	8.47	8.46	8.45	8.44	8.42	8.40	8.39	8.38	8.36	8.35	8.34	8.32	8.31	8.29	8.28	8.27	8.26	8.24	8.23	8.21	8.20	8.18	8.17	8.16	8.15	8.14	8.12	8.11	8.09	8.09	8.07	8.07	8.05	8.04	8.03	8.02	8.02	8.01	8.00	7.98	7.96	7.95	7.93	7.92	7.90	7.89	7.88	7.86	7.85	7.83	7.82	7.80	7.79	7.77	7.76	7.74	7.72	7.71	7.72	7.72	7.71	7.70	7.69	7.68	7.66	7.65	7.64	7.63	7.61	7.60	7.59	7.58	7.57	7.55	7.55	7.53	7.52	7.51	7.50	7.49	7.47	7.46	7.45	7.44	7.43	7.41	7.40	7.39	7.38	7.36	7.36	7.34	7.33	7.32	7.30	7.30	7.28	7.27	7.26	7.25	7.24	7.22	7.21	7.20	7.19	7.18	7.17	7.16	7.15	7.14	7.10	7.09	7.08	7.07	7.06	7.05	7.05	7.04	7.03	7.03	7.02	7.01	7.00	6.99	6.98	6.98	6.96	6.95	6.94	6.93	6.93	6.92	6.91	6.90	6.89	6.88	6.89	6.88	6.86	6.85	6.82	6.81	6.80	6.79	6.79	6.77	6.77	6.76	6.74	6.73	6.72	6.71	6.70	6.69	6.68	6.67	6.66	6.65	6.64	6.63	6.62	6.61	6.60	6.59	6.58	6.57	6.56	6.55	6.54	6.53	6.52	6.51	6.50	6.49	6.48	6.47	6.46	6.45	6.44	6.43	6.42	6.41	6.40	6.39	6.39	6.39	6.39	6.40	6.40	6.39	6.36	6.34	6.33	6.34	6.33	6.32	6.30	6.29	6.28	6.27	6.25	6.24	6.23	6.22	6.20	6.18	6.17	6.16	6.12	6.11	6.10	6.09	6.08	6.07	6.06	6.05	6.05	6.04	6.03	6.02	6.01	6.00	5.99	5.99	5.99	5.98	5.97	5.96	5.96	5.95	5.94	5.94	5.93	5.92	5.89	5.87	5.84	5.81	5.80	5.77	5.75	5.72	5.71	5.68	5.65	5.63	5.61	5.59	5.56	5.54	5.52	5.49	5.47	5.44	5.43	5.40	5.38	5.36	5.33	5.31	5.26	5.24	5.20	5.17	5.13	5.08	5.06	5.02	4.90	4.60	4.20	3.99	3.59	3.17	2.53	2.12	1.47	0.66	0.26	-0.02	-0.03	-0.06	-0.07	-0.06	-0.06	-0.02	0.14	0.22	0.34	0.42	0.58	0.70	0.78	0.91	1.00	1.16	1.25	1.41	1.59	1.68	1.84	1.93	2.02	2.04	2.07	2.11	2.13	2.16	2.17	2.19	2.19	2.19	2.19	2.19	2.19	2.20	2.20	2.20	2.19	2.19	2.20	2.20	2.20	2.20	2.21	2.21	2.20	2.20	2.21	2.21	2.21	2.21	2.22	2.21	2.22	2.21	2.23	2.23	2.19	2.16	2.12	2.08	2.04	2.01	1.90	1.70	1.60	1.46	1.37	1.18	1.08	0.96	0.86	0.80	0.67	0.61	0.51	0.45	-0.20	-0.23	-0.25	-0.30	-0.58	-0.95	-0.95	-1.32	-1.34	-1.42	-1.68	-1.68	-1.95	-2.24	-2.46	-2.64	-2.64	-2.72	-2.71	-2.77	-2.72	-2.77	-2.88	-2.82	-2.91	-2.73	-2.81	-2.88	-2.83	-2.90	-2.84	-2.76	-2.81	-2.85	-2.75	-2.76	-2.77	-2.85	-2.91	-2.89	-2.90	-2.78	-2.67	-2.63	-2.67	-2.67	-2.76	-2.79	-2.71	-2.73	-2.75	-2.71	-2.64	-2.64	-2.63	-2.69	-2.70	-2.67	-2.67	-2.67	-2.63	-2.66	-2.68	-2.68	-2.68	-2.71	-2.72	-2.75	-2.64	-2.65	-2.69	-2.69	-2.68	-2.59	-2.57	-2.55	-2.56	-2.53	-2.47	-2.54	-2.49	-2.48	-2.51	-2.40	-2.29	-2.11	-2.11	-2.15	-2.12	-2.05	-1.99	-1.95	-2.01	-1.99	-2.12	-2.12	-2.35	-2.28	-2.16	-2.07	-2.07	-2.08	-2.08	-2.03	-2.05	-2.05	-2.05	-2.10	-2.19	-2.33	-2.36	-2.32	-2.28	-2.29	-2.21	-2.21	-2.22	-2.22	-2.24	-2.27	-2.27
9.69	9.68	9.66	9.65	9.63	9.61	9.60	9.58	9.57	9.54	9.53	9.52	9.50	9.49	9.46	9.45	9.43	9.42	9.40	9.39	9.37	9.35	9.34	9.32	9.31	9.29	9.27	9.26	9.24	9.23	9.21	9.19	9.18	9.16	9.15	9.12	9.11	9.10	9.09	9.07	9.06	9.05	9.03	9.02	9.00	8.99	8.97	8.95	8.94	8.92	8.91	8.89	8.87	8.86	8.84	8.83	8.81	8.80	8.78	8.77	8.75	8.73	8.72	8.71	8.70	8.68	8.67	8.65	8.64	8.62	8.61	8.60	8.58	8.57	8.56	8.54	8.53	8.51	8.50	8.49	8.48	8.46	8.44	8.43	8.42	8.41	8.39	8.38	8.36	8.35	8.33	8.32	8.31	8.29	8.28	8.27	8.25	8.24	8.23	8.21	8.20	8.19	8.17	8.16	8.15	8.14	8.13	8.10	8.09	8.08	8.07	8.07	8.05	8.05	8.04	8.03	8.01	8.00	8.00	7.99	7.97	7.95	7.93	7.92	7.90	7.89	7.87	7.86	7.85	7.82	7.81	7.80	7.79	7.77	7.76	7.74	7.72	7.70	7.69	7.70	7.71	7.70	7.69	7.67	7.67	7.65	7.64	7.63	7.62	7.61	7.59	7.58	7.57	7.56	7.54	7.53	7.52	7.51	7.50	7.48	7.47	7.46	7.45	7.44	7.42	7.42	7.40	7.39	7.38	7.37	7.36	7.34	7.33	7.32	7.31	7.30	7.28	7.27	7.26	7.25	7.23	7.22	7.21	7.20	7.19	7.18	7.17	7.16	7.14	7.10	7.09	7.09	7.08	7.07	7.06	7.06	7.05	7.03	7.03	7.03	7.02	7.01	7.00	6.99	6.99	6.98	6.96	6.95	6.94	6.94	6.92	6.91	6.91	6.90	6.89	6.88	6.87	6.88	6.87	6.86	6.83	6.82	6.80	6.79	6.78	6.77	6.77	6.76	6.76	6.74	6.73	6.71	6.70	6.69	6.68	6.67	6.66	6.65	6.64	6.63	6.62	6.61	6.60	6.59	6.58	6.57	6.56	6.55	6.54	6.53	6.52	6.51	6.50	6.49	6.48	6.47	6.46	6.45	6.44	6.43	6.42	6.41	6.40	6.40	6.40	6.40	6.41	6.41	6.40	6.36	6.35	6.34	6.34	6.35	6.33	6.32	6.30	6.30	6.28	6.26	6.26	6.24	6.23	6.21	6.20	6.18	6.16	6.13	6.12	6.11	6.10	6.09	6.08	6.07	6.06	6.05	6.05	6.04	6.03	6.02	6.01	6.00	6.00	5.99	5.99	5.98	5.97	5.96	5.96	5.95	5.95	5.94	5.93	5.93	5.90	5.89	5.85	5.84	5.81	5.80	5.76	5.74	5.72	5.69	5.68	5.65	5.62	5.60	5.57	5.56	5.53	5.51	5.48	5.45	5.44	5.41	5.40	5.37	5.36	5.31	5.27	5.25	5.20	5.17	5.13	5.11	5.08	5.04	4.95	4.66	4.42	4.12	3.91	3.26	2.61	2.06	1.41	1.02	0.37	-0.04	-0.12	-0.11	-0.13	-0.16	-0.17	0.00	0.08	0.23	0.36	0.43	0.56	0.64	0.80	0.92	1.01	1.12	1.24	1.40	1.49	1.64	1.76	1.91	2.01	2.03	2.07	2.09	2.12	2.14	2.17	2.19	2.21	2.21	2.21	2.22	2.21	2.22	2.21	2.23	2.22	2.22	2.22	2.23	2.23	2.22	2.23	2.22	2.24	2.23	2.23	2.23	2.24	2.24	2.23	2.24	2.24	2.27	2.27	2.23	2.20	2.14	2.12	2.08	2.04	1.98	1.84	1.74	1.60	1.46	1.32	1.17	1.08	0.92	0.85	0.76	0.70	0.60	0.47	0.41	0.31	-0.37	-0.39	-0.39	-0.76	-0.86	-1.27	-1.38	-1.38	-1.69	-1.96	-1.91	-2.11	-2.11	-2.28	-2.62	-2.68	-2.67	-2.68	-2.71	-2.72	-2.77	-2.72	-2.74	-2.74	-2.70	-2.81	-2.76	-2.74	-2.77	-2.75	-2.76	-2.75	-2.73	-2.75	-2.75	-2.75	-2.74	-2.77	-2.89	-2.83	-2.74	-2.73	-2.69	-2.70	-2.72	-2.78	-2.83	-2.72	-2.73	-2.73	-2.69	-2.66	-2.63	-2.67	-2.67	-2.68	-2.64	-2.63	-2.64	-2.64	-2.68	-2.67	-2.67	-2.65	-2.66	-2.72	-2.64	-2.64	-2.62	-2.59	-2.68	-2.59	-2.59	-2.57	-2.51	-2.55	-2.45	-2.45	-2.47	-2.45	-2.48	-2.41	-2.31	-2.35	-2.20	-2.11	-2.13	-2.16	-2.09	-2.07	-1.95	-1.95	-2.09	-2.09	-2.23	-2.38	-2.38	-2.31	-2.17	-2.14	-2.14	-2.14	-2.17	-2.13	-2.06	-2.11	-2.11	-2.21	-2.32	-2.35	-2.34	-2.31	-2.22	-2.20	-2.21	-2.21	-2.25	-2.26	-2.27	-2.27
9.69	9.68	9.66	9.64	9.62	9.61	9.60	9.58	9.56	9.55	9.53	9.51	9.50	9.48	9.47	9.45	9.43	9.42	9.40	9.39	9.37	9.35	9.34	9.32	9.30	9.28	9.27	9.26	9.24	9.22	9.20	9.19	9.17	9.16	9.14	9.13	9.11	9.09	9.09	9.07	9.07	9.05	9.04	9.02	9.01	8.99	8.97	8.96	8.94	8.92	8.90	8.88	8.87	8.86	8.84	8.82	8.81	8.80	8.78	8.77	8.75	8.74	8.72	8.71	8.69	8.68	8.67	8.65	8.64	8.62	8.61	8.59	8.58	8.57	8.56	8.54	8.53	8.52	8.50	8.48	8.47	8.46	8.45	8.43	8.42	8.40	8.39	8.38	8.36	8.35	8.33	8.32	8.30	8.29	8.28	8.27	8.25	8.24	8.22	8.21	8.20	8.18	8.17	8.16	8.15	8.13	8.12	8.10	8.10	8.08	8.08	8.07	8.05	8.05	8.03	8.03	8.01	8.01	8.00	7.98	7.98	7.96	7.94	7.92	7.91	7.89	7.87	7.86	7.84	7.84	7.82	7.80	7.78	7.77	7.76	7.74	7.73	7.71	7.70	7.67	7.68	7.69	7.69	7.67	7.66	7.65	7.64	7.63	7.62	7.60	7.59	7.58	7.57	7.56	7.54	7.53	7.52	7.51	7.50	7.48	7.47	7.46	7.45	7.44	7.43	7.41	7.40	7.39	7.38	7.37	7.35	7.34	7.33	7.31	7.31	7.29	7.28	7.27	7.26	7.25	7.23	7.23	7.21	7.20	7.19	7.18	7.17	7.15	7.12	7.10	7.10	7.09	7.08	7.07	7.06	7.06	7.04	7.04	7.04	7.03	7.02	7.01	7.00	6.99	6.99	6.98	6.97	6.96	6.94	6.93	6.93	6.92	6.91	6.90	6.89	6.88	6.87	6.87	6.88	6.86	6.85	6.83	6.81	6.80	6.78	6.77	6.76	6.76	6.75	6.74	6.73	6.72	6.71	6.69	6.68	6.67	6.66	6.65	6.64	6.63	6.62	6.61	6.60	6.59	6.58	6.57	6.56	6.55	6.54	6.53	6.52	6.51	6.50	6.49	6.48	6.47	6.46	6.45	6.44	6.43	6.42	6.41	6.40	6.41	6.41	6.41	6.42	6.41	6.39	6.36	6.35	6.36	6.36	6.34	6.33	6.31	6.30	6.29	6.28	6.27	6.25	6.24	6.22	6.21	6.19	6.18	6.14	6.13	6.12	6.11	6.10	6.09	6.08	6.08	6.07	6.06	6.06	6.04	6.03	6.02	6.02	6.00	6.00	5.99	5.99	5.98	5.98	5.97	5.96	5.95	5.94	5.94	5.93	5.93	5.92	5.90	5.87	5.85	5.82	5.81	5.78	5.76	5.73	5.70	5.69	5.66	5.64	5.61	5.60	5.57	5.54	5.52	5.49	5.48	5.45	5.44	5.41	5.38	5.37	5.31	5.29	5.25	5.22	5.18	5.13	5.13	5.11	5.08	4.94	4.76	4.47	4.18	3.91	3.21	2.81	2.16	1.62	0.97	0.33	-0.02	-0.18	-0.23	-0.22	-0.23	-0.22	0.01	0.09	0.21	0.29	0.45	0.57	0.66	0.83	1.01	1.02	1.03	1.19	1.35	1.47	1.63	1.72	1.88	1.99	2.03	2.06	2.08	2.12	2.14	2.17	2.19	2.22	2.24	2.24	2.24	2.24	2.24	2.25	2.24	2.24	2.25	2.25	2.25	2.25	2.26	2.25	2.25	2.25	2.25	2.26	2.26	2.26	2.25	2.26	2.26	2.29	2.30	2.25	2.22	2.18	2.14	2.10	2.06	2.06	1.96	1.87	1.69	1.55	1.45	1.31	1.17	1.03	0.95	0.85	0.71	0.65	0.56	0.50	-0.16	-0.28	-0.30	-0.40	-0.67	-1.04	-1.04	-1.22	-1.32	-1.67	-1.95	-1.95	-2.22	-2.26	-2.18	-2.54	-2.54	-2.69	-2.68	-2.69	-2.70	-2.71	-2.71	-2.71	-2.74	-2.71	-2.74	-2.75	-2.74	-2.74	-2.70	-2.72	-2.74	-2.75	-2.77	-2.73	-2.74	-2.75	-2.74	-2.73	-2.72	-2.72	-2.74	-2.69	-2.69	-2.69	-2.74	-2.74	-2.74	-2.66	-2.71	-2.70	-2.69	-2.69	-2.65	-2.65	-2.67	-2.63	-2.63	-2.61	-2.64	-2.67	-2.67	-2.68	-2.66	-2.64	-2.67	-2.66	-2.66	-2.62	-2.59	-2.59	-2.60	-2.51	-2.57	-2.51	-2.51	-2.47	-2.48	-2.49	-2.46	-2.42	-2.40	-2.40	-2.31	-2.29	-2.30	-2.23	-2.24	-2.16	-2.23	-2.30	-2.18	-2.16	-2.20	-2.20	-2.27	-2.32	-2.38	-2.25	-2.25	-2.26	-2.20	-2.23	-2.18	-2.18	-2.19	-2.21	-2.16	-2.22	-2.26	-2.32	-2.31	-2.27	-2.28	-2.29	-2.20	-2.26	-2.25	-2.28	-2.33	-2.34
9.69	9.67	9.66	9.64	9.62	9.61	9.59	9.58	9.56	9.54	9.53	9.51	9.50	9.47	9.46	9.45	9.43	9.41	9.40	9.38	9.37	9.35	9.33	9.32	9.30	9.29	9.27	9.25	9.24	9.22	9.20	9.19	9.18	9.16	9.14	9.12	9.11	9.10	9.09	9.08	9.07	9.05	9.04	9.02	9.01	9.00	8.98	8.96	8.94	8.93	8.91	8.89	8.87	8.86	8.84	8.83	8.81	8.79	8.78	8.77	8.75	8.74	8.72	8.71	8.69	8.68	8.66	8.65	8.63	8.62	8.61	8.59	8.59	8.57	8.55	8.54	8.53	8.51	8.50	8.49	8.47	8.45	8.44	8.43	8.42	8.40	8.39	8.37	8.36	8.35	8.33	8.32	8.30	8.29	8.28	8.26	8.25	8.24	8.22	8.21	8.20	8.19	8.17	8.16	8.15	8.13	8.12	8.11	8.09	8.08	8.08	8.06	8.06	8.05	8.04	8.02	8.01	8.01	8.00	7.99	7.97	7.97	7.95	7.92	7.91	7.89	7.88	7.86	7.85	7.83	7.82	7.81	7.78	7.77	7.76	7.74	7.73	7.71	7.70	7.68	7.66	7.66	7.67	7.68	7.66	7.65	7.64	7.63	7.62	7.60	7.59	7.58	7.57	7.56	7.54	7.53	7.52	7.51	7.49	7.49	7.47	7.46	7.45	7.43	7.43	7.41	7.40	7.39	7.38	7.37	7.35	7.34	7.33	7.32	7.31	7.29	7.28	7.27	7.26	7.24	7.24	7.22	7.22	7.20	7.19	7.18	7.17	7.16	7.11	7.11	7.10	7.09	7.08	7.07	7.07	7.05	7.05	7.05	7.04	7.04	7.02	7.01	7.00	6.99	6.99	6.98	6.97	6.96	6.95	6.93	6.92	6.92	6.91	6.90	6.89	6.88	6.87	6.86	6.86	6.87	6.86	6.84	6.83	6.80	6.78	6.78	6.76	6.76	6.75	6.74	6.73	6.72	6.71	6.69	6.69	6.67	6.66	6.65	6.64	6.63	6.62	6.61	6.60	6.59	6.58	6.57	6.56	6.55	6.54	6.53	6.52	6.51	6.50	6.49	6.48	6.47	6.46	6.45	6.44	6.43	6.42	6.42	6.42	6.42	6.43	6.43	6.42	6.42	6.38	6.36	6.36	6.37	6.36	6.34	6.33	6.32	6.31	6.29	6.28	6.27	6.25	6.23	6.22	6.21	6.19	6.17	6.14	6.13	6.12	6.11	6.10	6.09	6.09	6.09	6.07	6.07	6.06	6.05	6.04	6.02	6.02	6.01	6.00	5.99	5.99	5.98	5.98	5.97	5.96	5.96	5.94	5.94	5.93	5.93	5.92	5.91	5.89	5.86	5.85	5.82	5.79	5.77	5.74	5.73	5.70	5.68	5.65	5.62	5.61	5.58	5.56	5.53	5.52	5.49	5.47	5.46	5.43	5.41	5.36	5.33	5.29	5.25	5.22	5.18	5.18	5.17	5.13	5.08	4.99	4.81	4.46	4.28	4.03	3.36	2.80	2.12	1.72	1.08	0.53	-0.03	-0.19	-0.28	-0.31	-0.32	-0.20	-0.08	0.07	0.23	0.31	0.43	0.53	0.76	0.88	1.04	1.03	1.01	1.18	1.27	1.43	1.52	1.70	1.86	1.95	2.02	2.05	2.08	2.10	2.13	2.17	2.19	2.22	2.23	2.26	2.27	2.26	2.26	2.26	2.27	2.27	2.27	2.27	2.28	2.27	2.27	2.27	2.28	2.28	2.28	2.28	2.28	2.29	2.28	2.28	2.31	2.31	2.28	2.24	2.22	2.16	2.13	2.11	2.10	2.01	1.89	1.80	1.68	1.54	1.40	1.26	1.16	1.02	0.91	0.81	0.74	0.64	0.51	0.44	-0.10	-0.20	-0.45	-0.45	-0.83	-0.92	-1.14	-1.48	-1.48	-1.85	-1.92	-2.20	-2.27	-2.27	-2.57	-2.73	-2.67	-2.72	-2.70	-2.69	-2.71	-2.71	-2.65	-2.69	-2.66	-2.73	-2.74	-2.73	-2.64	-2.67	-2.69	-2.69	-2.69	-2.71	-2.77	-2.70	-2.68	-2.73	-2.70	-2.73	-2.70	-2.78	-2.75	-2.71	-2.69	-2.68	-2.66	-2.71	-2.71	-2.66	-2.66	-2.66	-2.66	-2.65	-2.64	-2.64	-2.66	-2.64	-2.63	-2.62	-2.62	-2.63	-2.65	-2.67	-2.65	-2.63	-2.63	-2.65	-2.65	-2.59	-2.60	-2.61	-2.60	-2.51	-2.56	-2.54	-2.51	-2.45	-2.45	-2.48	-2.48	-2.42	-2.40	-2.33	-2.38	-2.34	-2.30	-2.32	-2.30	-2.31	-2.31	-2.30	-2.28	-2.31	-2.28	-2.29	-2.28	-2.28	-2.27	-2.29	-2.28	-2.31	-2.31	-2.29	-2.24	-2.25	-2.31	-2.26	-2.24	-2.22	-2.27	-2.30	-2.32	-2.32	-2.34	-2.29	-2.33	-2.31	-2.29	-2.31	-2.33	-2.34
